332.18,332.18,332.18,332.18,332.18,332.18,332.18,332.18,332.18,332.18,332.85,332.18,332.18,332.85,332.18,332.85,333.51,336.82,342.13,350.74,354.05,354.05,354.72,354.05,354.72,355.38,356.71,356.71,356.71,344.78,344.78,344.78,344.78,342.13,342.13,342.13,342.13,342.13,342.13,342.13,342.13,342.13,342.13,344.78,344.78,344.78,344.78,344.78,344.78,350.74,350.74,350.74,350.74,356.71,356.71,356.71,356.71,356.71,356.71,356.71,356.71,356.71,356.71,356.71,356.71,356.71,350.74,350.74,350.74,350.74,356.71,356.71,356.71,356.71,356.71,368.64,368.64,377.91,377.91,377.91,388.52,388.52,388.52,401.11,401.11,401.11,395.81,395.15,394.48,393.82,391.83,384.54,366.65,360.68,348.09,332.18,320.92,319.59,317.60,318.27,318.27,317.60,317.60,317.60,317.60,318.27,318.27,318.27,318.27,318.27,318.27,318.27,318.27,318.27,318.27,318.27,318.27,318.27,318.27,318.27,318.27,318.27,318.27,318.27,318.27,318.27,318.27,318.27,318.27,318.27,318.27,318.27,318.27,318.27,318.27,318.27,318.27,318.27,318.27,318.27,318.27,318.27,318.27,318.27,318.27,318.27,318.27,318.27,318.27,318.27,318.27,318.93,318.93,318.93,318.93,318.93,319.59,320.92,320.92,321.58,322.24,322.91,322.91,324.23,324.89,326.22,326.22,334.17,338.81,340.14,340.14,344.78,349.42,357.37,365.32,365.32,377.91,425.63,430.93,430.93,450.82,446.18,422.98,422.98,401.11,388.52,377.91,377.91,368.64,356.71,356.71,356.71,356.71,356.71,356.71,356.71,356.71,356.71,356.71,356.71,356.71,356.71,368.64,368.64,368.64,368.64,368.64,368.64,377.91,377.91,377.91,401.11,446.18,446.18,446.18,439.55,413.70,392.49,347.43,340.14,340.14,337.49,334.17,334.17,330.86,330.86,326.22,326.22,326.22,326.22,326.22,326.22,326.22,326.22,326.22,326.22,326.22,326.22,326.22,326.22,326.22,326.22,326.22,326.22,330.86,330.86,330.86,330.86,330.86,330.86,330.86,330.86,330.86,330.86,330.86,326.22,326.22,326.22,326.22,326.22,326.22,326.22,326.22,326.22,326.22,326.22,326.22,326.22,326.22,326.22,326.22,326.22,326.22,326.22,326.22,326.22,326.22,326.22,326.22,326.22,326.22,326.22,326.22,326.22,326.22,326.22,326.22,326.22,326.22,326.22,326.22,326.22,326.22,330.86,330.86,334.17,334.17,337.49,340.14,346.76,354.05,354.05,397.80,397.80,438.22,422.98,422.98,388.52,377.91,368.64,368.64,368.64,368.64,368.64,368.64,368.64,356.71,356.71,356.71,356.71,368.64,368.64,368.64,356.71,356.71,356.71,356.71,356.71,356.71,356.71,356.71,356.71,356.71,356.71,356.71,356.71,356.71,356.71,356.71,356.71,356.71,356.71,356.71,356.71,356.71,356.71,356.71,364.66,365.98,368.64,368.64,368.64,368.64,368.64,368.64,368.64,368.64,368.64,368.64,368.64,368.64,368.64,368.64,368.64,368.64,368.64,368.64,368.64,368.64,368.64,368.64,368.64,368.64,368.64,368.64,368.64,368.64,368.64,368.64,368.64,368.64,368.64,368.64,368.64,368.64,368.64,368.64,368.64,368.64,368.64,368.64,368.64,368.64,368.64,368.64,368.64,368.64,368.64,368.64,368.64,377.91,377.91,377.91,377.91,377.91,377.91,388.52,388.52,388.52,388.52,388.52,388.52,388.52,388.52,388.52,388.52,388.52,388.52,388.52,388.52,388.52,388.52,388.52,377.91,377.91,377.91
332.18,332.18,332.18,332.18,332.18,332.18,332.18,332.18,332.18,332.18,332.18,332.85,332.18,332.18,332.18,332.85,333.51,341.46,344.78,354.05,354.72,354.72,355.38,355.38,356.04,356.04,356.71,356.71,356.71,344.78,344.78,344.78,344.78,342.13,342.13,342.13,342.13,342.13,342.13,342.13,342.13,342.13,344.78,344.78,344.78,344.78,344.78,350.74,350.74,350.74,350.74,350.74,356.71,356.71,356.71,356.71,356.71,356.71,356.71,356.71,356.71,356.71,356.71,356.71,356.71,356.71,350.74,350.74,350.74,350.74,356.71,356.71,356.71,356.71,356.71,368.64,377.91,377.91,377.91,388.52,388.52,388.52,401.11,401.11,401.11,401.11,399.78,399.12,399.12,399.12,399.12,383.22,364.66,344.11,321.58,322.91,318.93,318.27,317.60,318.27,317.60,317.60,317.60,317.60,317.60,317.60,318.27,318.27,318.27,318.27,318.27,318.27,318.27,318.27,318.27,318.27,318.27,318.27,318.27,318.27,318.27,318.27,318.27,318.27,318.27,318.27,318.27,318.27,318.27,318.27,318.27,318.27,318.27,318.27,318.27,318.27,318.27,318.27,318.27,318.27,318.27,318.27,318.27,318.27,318.27,318.27,318.27,318.27,318.27,318.27,318.27,318.93,318.93,318.93,318.93,318.93,319.59,320.92,320.92,321.58,322.24,322.91,322.91,323.57,324.89,326.22,326.22,334.17,337.49,340.14,340.14,344.78,349.42,357.37,365.32,365.32,377.91,425.63,430.93,430.93,450.82,446.18,401.11,401.11,401.11,377.91,368.64,368.64,368.64,356.71,356.71,356.71,356.71,356.71,356.71,356.71,356.71,356.71,356.71,356.71,356.71,356.71,356.71,356.71,356.71,368.64,368.64,368.64,377.91,377.91,377.91,401.11,446.18,446.18,425.63,425.63,414.36,387.19,369.30,341.46,339.47,337.49,334.17,334.17,330.86,330.86,326.22,326.22,326.22,326.22,326.22,326.22,326.22,326.22,326.22,326.22,326.22,326.22,326.22,326.22,326.22,326.22,326.22,326.22,330.86,330.86,330.86,330.86,330.86,330.86,330.86,330.86,330.86,330.86,330.86,326.22,326.22,326.22,326.22,326.22,326.22,326.22,326.22,326.22,326.22,326.22,326.22,326.22,326.22,326.22,326.22,326.22,326.22,326.22,326.22,326.22,326.22,326.22,326.22,326.22,326.22,326.22,326.22,326.22,326.22,326.22,326.22,326.22,326.22,326.22,326.22,326.22,326.22,330.86,330.86,334.17,334.17,337.49,340.14,346.76,354.05,354.05,365.32,397.80,430.93,446.18,446.18,388.52,377.91,377.91,377.91,368.64,368.64,368.64,368.64,368.64,356.71,356.71,356.71,356.71,368.64,368.64,368.64,356.71,356.71,356.71,356.71,356.71,356.71,356.71,356.71,356.71,356.71,356.71,356.71,356.71,356.71,356.71,356.71,356.71,356.71,356.71,356.71,356.71,356.71,356.71,368.64,368.64,368.64,368.64,368.64,368.64,368.64,368.64,368.64,368.64,368.64,368.64,368.64,368.64,368.64,368.64,368.64,368.64,368.64,368.64,368.64,368.64,368.64,368.64,368.64,368.64,368.64,368.64,368.64,368.64,368.64,368.64,368.64,368.64,368.64,368.64,368.64,368.64,368.64,368.64,368.64,368.64,368.64,368.64,368.64,368.64,368.64,368.64,368.64,368.64,368.64,368.64,368.64,368.64,377.91,377.91,377.91,377.91,377.91,377.91,388.52,388.52,388.52,388.52,388.52,388.52,388.52,388.52,388.52,388.52,388.52,388.52,388.52,388.52,388.52,388.52,388.52,377.91,377.91,377.91
332.18,332.18,332.18,332.18,332.18,332.18,332.18,332.18,332.18,332.18,332.18,332.18,332.18,332.85,332.18,332.85,332.18,337.49,344.11,352.07,354.72,356.04,355.38,355.38,356.04,356.04,356.04,356.04,353.39,348.09,344.78,344.78,344.78,342.13,342.13,342.13,342.13,342.13,342.13,342.13,342.13,342.13,344.78,344.78,344.78,344.78,344.78,350.74,350.74,350.74,350.74,350.74,356.71,356.71,356.71,356.71,356.71,356.71,356.71,356.71,356.71,356.71,356.71,356.71,350.74,350.74,350.74,350.74,350.74,350.74,356.71,356.71,356.71,356.71,356.71,368.64,377.91,377.91,377.91,388.52,388.52,388.52,401.11,401.11,401.11,401.11,403.10,403.76,404.42,404.42,403.76,377.91,356.71,322.91,318.27,318.27,317.60,317.60,317.60,317.60,317.60,317.60,317.60,317.60,317.60,317.60,318.27,318.27,318.27,318.27,318.27,318.27,318.27,318.27,318.27,318.27,318.27,318.27,318.27,318.27,318.27,318.27,318.27,318.27,318.27,318.27,318.27,318.27,318.27,318.27,318.27,318.27,318.27,318.27,318.27,318.27,318.27,318.27,318.27,318.27,318.27,318.27,318.27,318.27,318.27,318.27,318.27,318.27,318.27,318.27,318.27,318.93,318.93,318.93,318.93,318.93,319.59,320.92,320.92,321.58,322.24,322.91,322.91,323.57,324.89,326.22,326.22,334.17,337.49,343.45,344.78,344.78,349.42,357.37,365.32,365.32,377.91,425.63,430.93,430.93,450.82,446.18,401.11,401.11,388.52,377.91,368.64,368.64,368.64,356.71,356.71,356.71,356.71,356.71,356.71,356.71,356.71,356.71,356.71,356.71,356.71,356.71,356.71,356.71,356.71,356.71,368.64,368.64,377.91,377.91,377.91,388.52,422.98,422.98,425.63,425.63,420.33,388.52,359.36,340.14,340.14,337.49,334.17,334.17,330.86,330.86,330.86,330.86,326.22,326.22,326.22,326.22,326.22,326.22,326.22,326.22,326.22,326.22,326.22,326.22,326.22,326.22,330.86,330.86,330.86,330.86,330.86,330.86,330.86,330.86,330.86,330.86,330.86,330.86,330.86,326.22,326.22,326.22,326.22,326.22,326.22,326.22,326.22,326.22,326.22,326.22,326.22,326.22,326.22,326.22,326.22,326.22,326.22,326.22,326.22,326.22,326.22,326.22,326.22,326.22,326.22,326.22,326.22,326.22,326.22,326.22,326.22,326.22,326.22,326.22,326.22,326.22,326.22,326.22,330.86,334.17,334.17,337.49,340.14,346.76,354.05,354.05,365.32,397.80,430.93,446.18,446.18,388.52,377.91,377.91,377.91,368.64,368.64,368.64,368.64,368.64,368.64,368.64,368.64,368.64,368.64,368.64,356.71,356.71,356.71,356.71,356.71,356.71,356.71,356.71,356.71,356.71,356.71,356.71,356.71,356.71,356.71,356.71,356.71,356.71,356.71,356.71,356.71,356.71,356.71,356.71,368.64,368.64,368.64,368.64,368.64,368.64,368.64,368.64,368.64,368.64,368.64,368.64,368.64,368.64,367.97,368.64,368.64,368.64,368.64,368.64,368.64,368.64,368.64,368.64,368.64,356.71,368.64,368.64,368.64,368.64,368.64,368.64,368.64,368.64,368.64,368.64,368.64,368.64,368.64,368.64,368.64,368.64,368.64,368.64,368.64,368.64,368.64,368.64,368.64,368.64,368.64,368.64,368.64,368.64,377.91,377.91,377.91,377.91,377.91,377.91,377.91,377.91,388.52,388.52,388.52,388.52,388.52,388.52,388.52,377.91,377.91,377.91,377.91,377.91,377.91,377.91,377.91,377.91,377.91,377.91
332.18,332.18,332.18,332.18,332.18,332.18,332.18,332.18,332.18,332.18,332.18,332.18,332.85,332.18,332.18,332.18,332.18,336.82,341.46,347.43,355.38,355.38,355.38,356.04,355.38,356.04,356.04,354.05,350.08,348.09,344.78,344.78,344.78,342.13,342.13,342.13,342.13,342.13,342.13,342.13,344.78,344.78,344.78,344.78,344.78,344.78,344.78,350.74,350.74,350.74,356.71,356.71,356.71,356.71,356.71,356.71,356.71,356.71,356.71,356.71,356.71,356.71,356.71,356.71,350.74,350.74,350.74,350.74,350.74,350.74,356.71,356.71,356.71,356.71,356.71,368.64,377.91,377.91,377.91,388.52,388.52,388.52,401.11,401.11,401.11,401.11,407.07,408.40,408.40,408.40,404.42,367.97,342.79,322.91,318.27,317.60,318.27,318.27,318.27,317.60,318.27,317.60,317.60,317.60,317.60,317.60,317.60,317.60,317.60,318.27,318.27,318.27,318.27,318.27,318.27,318.27,318.27,318.27,318.27,318.27,318.27,318.27,318.27,318.27,318.27,318.27,318.27,318.27,318.27,318.27,318.27,318.27,318.27,318.27,318.27,318.27,318.27,318.27,318.27,318.27,318.27,318.27,318.27,318.27,318.27,318.27,318.27,318.27,318.27,318.27,318.27,318.93,318.93,318.93,318.93,318.93,319.59,320.25,320.25,320.92,322.24,322.91,322.91,323.57,324.89,325.56,325.56,330.86,337.49,343.45,344.78,344.78,349.42,357.37,365.32,365.32,377.91,425.63,438.22,438.22,450.82,422.98,401.11,401.11,388.52,377.91,368.64,368.64,368.64,356.71,356.71,356.71,356.71,356.71,356.71,356.71,356.71,356.71,356.71,356.71,350.74,350.74,356.71,356.71,356.71,356.71,356.71,356.71,368.64,377.91,377.91,388.52,422.98,422.98,430.93,430.93,418.34,389.18,364.66,340.14,340.14,337.49,334.17,334.17,330.86,330.86,330.86,330.86,326.22,326.22,326.22,326.22,326.22,326.22,326.22,326.22,326.22,326.22,326.22,326.22,326.22,326.22,330.86,330.86,330.86,330.86,330.86,330.86,330.86,330.86,330.86,330.86,330.86,330.86,330.86,330.86,326.22,326.22,326.22,326.22,326.22,326.22,326.22,326.22,326.22,326.22,326.22,326.22,326.22,326.22,326.22,326.22,326.22,326.22,326.22,326.22,326.22,326.22,326.22,326.22,326.22,326.22,326.22,326.22,326.22,326.22,326.22,326.22,326.22,326.22,326.22,326.22,326.22,326.22,330.86,334.17,334.17,337.49,340.14,346.76,354.05,354.05,365.32,397.80,430.93,446.18,446.18,388.52,377.91,377.91,377.91,368.64,368.64,368.64,368.64,368.64,368.64,368.64,368.64,368.64,368.64,356.71,356.71,356.71,356.71,356.71,356.71,356.71,356.71,356.71,356.71,356.71,356.71,356.71,356.71,356.71,356.71,356.71,356.71,356.71,356.71,356.71,356.71,356.71,356.71,356.71,356.71,356.71,368.64,368.64,368.64,368.64,368.64,368.64,368.64,368.64,368.64,368.64,368.64,368.64,368.64,368.64,367.97,368.64,368.64,368.64,368.64,368.64,356.71,368.64,368.64,356.71,368.64,368.64,356.71,368.64,368.64,368.64,368.64,368.64,368.64,368.64,368.64,368.64,368.64,368.64,368.64,368.64,368.64,368.64,368.64,368.64,368.64,368.64,368.64,368.64,368.64,368.64,368.64,368.64,368.64,377.91,377.91,377.91,377.91,377.91,377.91,377.91,377.91,377.91,377.91,377.91,377.91,377.91,377.91,377.91,377.91,377.91,377.91,377.91,377.91,377.91,377.91,377.91,377.91,377.91
332.18,332.18,332.18,332.18,332.18,332.18,332.18,332.18,332.18,332.18,332.18,332.18,332.18,332.18,332.18,332.85,332.18,332.85,338.81,344.78,350.74,356.04,355.38,355.38,355.38,355.38,354.72,352.07,348.75,346.76,346.76,345.44,343.45,342.13,342.13,342.13,342.13,342.13,342.13,342.13,344.78,344.78,344.78,344.78,344.78,344.78,350.74,350.74,350.74,350.74,356.71,356.71,356.71,356.71,356.71,356.71,356.71,356.71,356.71,356.71,356.71,356.71,356.71,356.71,350.74,350.74,350.74,350.74,350.74,350.74,356.71,356.71,356.71,356.71,356.71,368.64,368.64,377.91,377.91,388.52,388.52,388.52,401.11,422.98,422.98,422.98,417.02,415.03,415.03,413.70,395.15,363.33,343.45,318.27,317.60,318.27,317.60,317.60,317.60,317.60,317.60,317.60,317.60,317.60,317.60,317.60,317.60,317.60,317.60,317.60,318.27,318.27,318.27,318.27,318.27,318.27,318.27,318.27,318.27,318.27,318.27,318.27,318.27,318.27,318.27,318.27,317.60,317.60,317.60,317.60,317.60,317.60,317.60,317.60,317.60,317.60,318.27,318.27,318.27,318.27,318.27,318.27,318.27,318.27,318.27,318.27,318.27,318.27,318.27,318.27,318.27,318.93,318.93,318.93,318.93,318.93,319.59,319.59,320.25,320.92,321.58,322.24,322.24,322.91,324.23,325.56,325.56,330.86,337.49,343.45,344.78,344.78,349.42,357.37,365.32,365.32,377.91,425.63,438.22,438.22,450.82,422.98,401.11,401.11,388.52,377.91,368.64,368.64,368.64,356.71,356.71,356.71,356.71,356.71,356.71,356.71,356.71,356.71,356.71,356.71,350.74,350.74,356.71,356.71,356.71,356.71,356.71,356.71,368.64,377.91,377.91,388.52,422.98,422.98,430.93,430.93,417.02,389.84,366.65,340.14,340.14,337.49,334.17,334.17,330.86,330.86,330.86,330.86,326.22,326.22,326.22,326.22,326.22,326.22,326.22,326.22,326.22,326.22,326.22,326.22,326.22,326.22,330.86,330.86,330.86,330.86,330.86,330.86,330.86,330.86,330.86,330.86,330.86,330.86,330.86,330.86,326.22,326.22,326.22,326.22,326.22,326.22,326.22,326.22,326.22,326.22,326.22,326.22,326.22,326.22,326.22,326.22,326.22,326.22,326.22,326.22,326.22,326.22,326.22,326.22,326.22,326.22,326.22,326.22,326.22,326.22,326.22,326.22,326.22,326.22,326.22,326.22,326.22,326.22,330.86,334.17,334.17,337.49,340.14,346.76,354.05,354.05,365.32,397.80,430.93,446.18,446.18,388.52,377.91,377.91,377.91,368.64,368.64,368.64,368.64,368.64,368.64,368.64,368.64,368.64,368.64,356.71,356.71,356.71,356.71,356.71,356.71,356.71,356.71,356.71,356.71,356.71,356.71,356.71,368.64,368.64,368.64,356.71,356.71,356.71,356.71,356.71,356.71,356.71,356.71,356.71,356.71,356.71,368.64,368.64,368.64,368.64,368.64,368.64,368.64,368.64,368.64,368.64,368.64,368.64,368.64,368.64,368.64,368.64,368.64,368.64,368.64,368.64,356.71,368.64,368.64,356.71,368.64,368.64,356.71,368.64,368.64,368.64,368.64,368.64,368.64,368.64,368.64,368.64,368.64,368.64,368.64,368.64,368.64,368.64,368.64,368.64,368.64,368.64,368.64,368.64,368.64,368.64,368.64,368.64,377.91,377.91,377.91,377.91,377.91,377.91,377.91,377.91,377.91,377.91,377.91,377.91,377.91,377.91,377.91,377.91,377.91,377.91,377.91,377.91,377.91,377.91,377.91,377.91,377.91,377.91
332.18,332.18,332.18,332.18,332.18,332.18,332.18,332.18,332.18,332.18,332.18,332.18,332.18,332.18,332.85,332.18,332.85,332.18,334.84,344.11,350.08,354.72,355.38,355.38,354.72,354.05,352.07,348.75,346.76,345.44,344.78,343.45,343.45,342.13,342.13,342.13,342.13,342.13,342.13,342.13,344.78,344.78,344.78,344.78,344.78,344.78,350.74,350.74,350.74,350.74,356.71,356.71,356.71,356.71,356.71,356.71,356.71,356.71,356.71,356.71,356.71,356.71,356.71,350.74,350.74,350.74,350.74,350.74,350.74,350.74,356.71,356.71,356.71,356.71,356.71,368.64,368.64,377.91,377.91,388.52,388.52,391.83,403.10,422.98,422.98,422.98,420.33,419.67,418.34,417.68,382.55,356.04,321.58,317.60,318.27,317.60,317.60,317.60,317.60,317.60,317.60,317.60,317.60,317.60,317.60,317.60,317.60,317.60,317.60,317.60,317.60,317.60,317.60,317.60,317.60,317.60,317.60,317.60,317.60,317.60,317.60,317.60,317.60,317.60,317.60,317.60,317.60,317.60,317.60,317.60,317.60,317.60,317.60,317.60,317.60,317.60,317.60,318.27,318.27,318.27,318.27,318.27,318.27,318.27,318.27,318.27,318.27,318.27,318.27,318.27,318.27,318.93,318.93,318.93,318.93,318.93,319.59,319.59,319.59,320.92,320.92,320.92,322.24,322.91,324.23,325.56,325.56,330.86,337.49,343.45,346.76,346.76,351.40,357.37,365.32,365.32,377.91,425.63,438.22,438.22,450.82,422.98,401.11,401.11,388.52,377.91,368.64,368.64,368.64,356.71,356.71,356.71,356.71,350.74,350.74,350.74,350.74,350.74,350.74,350.74,350.74,350.74,350.74,350.74,356.71,356.71,356.71,356.71,356.71,368.64,368.64,377.91,401.11,401.11,438.22,438.22,419.00,388.52,368.64,344.78,344.78,338.81,334.17,334.17,330.86,330.86,330.86,330.86,326.22,326.22,326.22,326.22,326.22,326.22,326.22,326.22,326.22,326.22,326.22,326.22,326.22,326.22,330.86,330.86,330.86,330.86,330.86,330.86,330.86,330.86,330.86,330.86,330.86,330.86,330.86,330.86,330.86,330.86,326.22,326.22,326.22,326.22,326.22,326.22,326.22,326.22,326.22,326.22,326.22,326.22,326.22,326.22,326.22,326.22,326.22,326.22,326.22,326.22,326.22,326.22,326.22,326.22,326.22,326.22,326.22,326.22,326.22,326.22,326.22,326.22,326.22,326.22,326.22,326.22,330.86,334.17,334.17,337.49,340.14,346.76,354.05,354.05,365.32,397.80,438.22,446.18,446.18,388.52,377.91,377.91,377.91,368.64,368.64,368.64,368.64,368.64,368.64,368.64,368.64,368.64,368.64,356.71,356.71,356.71,356.71,356.71,356.71,356.71,356.71,356.71,356.71,356.71,356.71,356.71,368.64,368.64,368.64,356.71,356.71,356.71,356.71,356.71,356.71,356.71,356.71,356.71,356.71,356.71,356.71,356.71,356.71,368.64,368.64,368.64,368.64,368.64,368.64,368.64,368.64,368.64,368.64,368.64,368.64,368.64,368.64,368.64,368.64,368.64,356.71,356.71,356.71,356.71,356.71,356.71,356.71,356.71,368.64,368.64,356.71,356.71,356.71,356.71,368.64,368.64,368.64,368.64,368.64,368.64,368.64,368.64,368.64,368.64,368.64,368.64,368.64,368.64,368.64,368.64,368.64,368.64,377.91,377.91,377.91,377.91,377.91,377.91,377.91,377.91,377.91,377.91,377.91,377.91,377.91,377.91,377.91,377.91,377.91,377.91,377.91,377.91,377.91,377.91,377.91,377.91,377.91,377.91
332.18,332.18,332.18,332.18,332.18,332.18,332.18,332.18,332.18,332.18,332.18,332.18,332.18,332.18,332.18,332.18,332.85,332.18,332.85,340.80,345.44,354.05,353.39,352.73,352.07,350.08,347.43,346.76,344.78,343.45,343.45,342.79,342.13,342.13,342.13,342.13,342.13,342.13,342.13,342.13,344.78,344.78,344.78,344.78,344.78,344.78,350.74,350.74,350.74,350.74,356.71,356.71,356.71,356.71,356.71,356.71,356.71,356.71,356.71,356.71,356.71,356.71,356.71,350.74,350.74,350.74,350.74,350.74,350.74,350.74,356.71,356.71,356.71,356.71,356.71,356.71,368.64,377.91,377.91,388.52,388.52,397.13,400.45,414.36,419.67,420.33,419.67,419.67,418.34,399.78,365.98,337.49,317.60,318.27,317.60,318.27,317.60,317.60,317.60,317.60,317.60,317.60,317.60,317.60,317.60,317.60,317.60,317.60,317.60,317.60,317.60,317.60,317.60,317.60,317.60,317.60,317.60,317.60,317.60,317.60,317.60,317.60,317.60,317.60,317.60,317.60,317.60,317.60,317.60,317.60,317.60,317.60,317.60,317.60,317.60,317.60,317.60,318.27,318.27,318.27,318.27,318.27,318.27,318.27,318.27,318.27,318.27,318.27,318.27,318.27,318.27,318.93,318.93,318.93,318.93,318.93,319.59,319.59,319.59,320.92,320.92,320.92,322.24,322.91,324.23,325.56,325.56,330.86,337.49,343.45,346.76,346.76,351.40,357.37,365.32,365.32,377.91,425.63,438.22,438.22,450.82,422.98,401.11,401.11,388.52,377.91,368.64,368.64,356.71,356.71,356.71,356.71,350.74,350.74,350.74,350.74,350.74,350.74,350.74,350.74,350.74,350.74,350.74,350.74,350.74,356.71,356.71,356.71,356.71,356.71,356.71,368.64,368.64,390.51,417.68,429.61,399.12,384.54,362.67,344.78,344.78,340.14,337.49,337.49,334.17,330.86,330.86,330.86,326.22,326.22,326.22,326.22,326.22,326.22,326.22,326.22,326.22,326.22,326.22,326.22,330.86,330.86,330.86,330.86,330.86,330.86,330.86,330.86,330.86,330.86,330.86,330.86,330.86,330.86,330.86,330.86,330.86,330.86,330.86,326.22,326.22,326.22,326.22,326.22,326.22,326.22,326.22,326.22,326.22,326.22,326.22,326.22,326.22,326.22,326.22,326.22,326.22,326.22,326.22,326.22,326.22,326.22,326.22,326.22,326.22,326.22,326.22,326.22,326.22,326.22,326.22,326.22,326.22,330.86,330.86,334.17,334.17,337.49,340.14,346.76,354.05,354.05,365.32,397.80,438.22,446.18,446.18,388.52,377.91,377.91,377.91,368.64,368.64,368.64,368.64,368.64,368.64,368.64,368.64,368.64,368.64,356.71,356.71,356.71,356.71,356.71,356.71,356.71,356.71,356.71,356.71,356.71,356.71,356.71,356.71,356.71,356.71,356.71,356.71,356.71,356.71,356.71,356.71,356.71,356.71,356.71,356.71,356.71,356.71,356.71,356.71,356.71,368.64,368.64,368.64,368.64,368.64,368.64,368.64,368.64,368.64,368.64,368.64,368.64,368.64,368.64,368.64,368.64,356.71,356.71,356.71,356.71,356.71,356.71,356.71,356.71,356.71,356.71,356.71,356.71,356.71,356.71,356.71,356.71,356.71,356.71,356.71,356.71,356.71,356.71,368.64,368.64,368.64,368.64,368.64,368.64,368.64,368.64,368.64,368.64,377.91,377.91,377.91,377.91,377.91,377.91,377.91,377.91,377.91,377.91,377.91,377.91,377.91,377.91,377.91,377.91,377.91,377.91,377.91,377.91,377.91,377.91,377.91,377.91,377.91,377.91
332.18,332.18,332.18,332.18,332.18,332.18,332.18,332.18,332.18,332.18,332.18,332.18,332.18,332.18,332.18,332.85,332.18,332.85,332.18,336.82,343.45,348.09,350.74,347.43,346.10,344.78,344.11,342.13,341.46,341.46,340.80,341.46,341.46,340.14,342.13,342.13,342.13,342.13,342.13,342.13,344.78,344.78,344.78,344.78,344.78,344.78,350.74,350.74,350.74,356.71,356.71,356.71,356.71,356.71,356.71,356.71,356.71,356.71,356.71,356.71,356.71,356.71,356.71,350.74,350.74,350.74,350.74,350.74,350.74,350.74,356.71,356.71,356.71,356.71,356.71,356.71,368.64,377.91,377.91,388.52,388.52,393.16,396.47,405.75,416.35,420.33,419.67,419.00,419.00,378.58,356.71,327.55,318.27,317.60,317.60,317.60,318.27,317.60,317.60,317.60,317.60,317.60,317.60,317.60,317.60,317.60,317.60,317.60,317.60,317.60,317.60,317.60,317.60,317.60,317.60,317.60,317.60,317.60,317.60,317.60,317.60,317.60,317.60,317.60,317.60,317.60,317.60,317.60,317.60,317.60,317.60,317.60,317.60,317.60,317.60,317.60,317.60,317.60,317.60,318.27,318.27,318.27,318.27,318.27,318.27,318.27,318.27,318.27,318.27,318.27,318.27,318.93,318.93,318.93,318.93,318.93,319.59,319.59,319.59,320.25,320.92,320.92,322.24,322.91,323.57,325.56,325.56,330.86,337.49,343.45,346.76,346.76,351.40,357.37,365.32,365.32,377.91,425.63,438.22,438.22,450.82,422.98,401.11,401.11,388.52,377.91,368.64,368.64,356.71,356.71,356.71,356.71,350.74,350.74,350.74,350.74,350.74,350.74,350.74,350.74,350.74,350.74,350.74,350.74,350.74,356.71,356.71,356.71,356.71,356.71,356.71,368.64,368.64,385.87,391.83,387.85,383.88,367.97,350.08,344.78,344.78,338.81,334.17,334.17,334.17,330.86,330.86,330.86,326.22,326.22,326.22,326.22,326.22,326.22,326.22,326.22,326.22,326.22,326.22,326.22,330.86,330.86,330.86,330.86,330.86,330.86,330.86,330.86,330.86,330.86,330.86,330.86,330.86,330.86,330.86,330.86,330.86,330.86,330.86,326.22,326.22,326.22,326.22,326.22,326.22,326.22,326.22,326.22,326.22,326.22,326.22,326.22,326.22,326.22,326.22,326.22,326.22,326.22,326.22,326.22,326.22,326.22,326.22,326.22,326.22,326.22,326.22,326.22,326.22,326.22,326.22,326.22,326.22,330.86,330.86,334.17,334.17,337.49,340.14,346.76,354.05,354.05,365.32,397.80,438.22,446.18,446.18,388.52,377.91,377.91,377.91,368.64,368.64,368.64,368.64,368.64,368.64,368.64,368.64,368.64,368.64,356.71,356.71,356.71,356.71,356.71,356.71,356.71,356.71,356.71,356.71,356.71,356.71,356.71,356.71,356.71,356.71,356.71,356.71,356.71,356.71,356.71,356.71,356.71,356.71,356.71,356.71,356.71,356.71,356.71,356.71,356.71,356.71,356.71,356.71,368.64,368.64,368.64,368.64,368.64,368.64,368.64,368.64,368.64,368.64,368.64,368.64,356.71,356.71,356.71,356.71,356.71,356.71,356.71,356.71,356.71,356.71,356.71,356.71,356.71,356.71,356.71,356.71,356.71,356.71,356.71,356.71,356.71,356.71,356.71,368.64,368.64,368.64,368.64,368.64,368.64,368.64,368.64,368.64,368.64,368.64,377.91,377.91,377.91,377.91,377.91,377.91,377.91,377.91,377.91,377.91,377.91,377.91,377.91,377.91,377.91,377.91,377.91,377.91,377.91,377.91,377.91,377.91,377.91,377.91,377.91
332.18,332.18,332.18,332.18,332.18,332.18,332.18,332.18,332.18,332.18,332.18,332.18,332.18,332.18,332.18,332.18,332.18,332.85,332.18,333.51,340.80,344.78,344.78,344.11,344.11,342.79,341.46,341.46,340.80,340.80,340.14,340.14,340.14,340.14,340.14,340.14,340.14,342.13,342.13,342.13,342.13,342.13,344.78,344.78,344.78,350.74,350.74,356.71,356.71,356.71,356.71,356.71,356.71,356.71,356.71,356.71,356.71,356.71,356.71,356.71,356.71,356.71,356.71,350.74,350.74,350.74,350.74,344.78,344.78,350.74,350.74,350.74,350.74,356.71,356.71,356.71,368.64,368.64,368.64,388.52,388.52,387.85,390.51,399.12,411.05,418.34,418.34,418.34,395.81,366.65,335.50,318.27,317.60,317.60,318.27,317.60,317.60,317.60,317.60,317.60,317.60,317.60,317.60,317.60,317.60,317.60,317.60,317.60,317.60,317.60,317.60,317.60,317.60,317.60,317.60,317.60,317.60,317.60,317.60,317.60,317.60,317.60,317.60,317.60,317.60,317.60,317.60,317.60,317.60,317.60,317.60,317.60,317.60,317.60,317.60,317.60,317.60,317.60,317.60,318.27,318.27,318.27,318.27,318.27,318.27,318.27,318.27,318.27,318.27,318.27,318.27,318.93,318.93,318.93,318.93,318.93,319.59,319.59,319.59,320.25,320.92,320.92,321.58,322.24,323.57,325.56,325.56,330.86,338.81,343.45,346.76,346.76,351.40,357.37,365.32,365.32,377.91,430.93,438.22,438.22,446.18,422.98,401.11,401.11,377.91,368.64,368.64,368.64,356.71,356.71,356.71,356.71,350.74,350.74,350.74,350.74,350.74,350.74,350.74,350.74,350.74,350.74,350.74,350.74,350.74,350.74,350.74,350.74,356.71,356.71,356.71,356.71,356.71,377.91,395.81,403.10,382.55,364.66,350.74,344.78,344.78,338.81,334.17,334.17,330.86,330.86,330.86,330.86,330.86,326.22,326.22,326.22,326.22,326.22,326.22,326.22,326.22,330.86,330.86,330.86,330.86,330.86,330.86,330.86,330.86,330.86,330.86,330.86,330.86,330.86,330.86,330.86,330.86,330.86,330.86,330.86,330.86,330.86,330.86,330.86,330.86,330.86,330.86,330.86,330.86,330.86,330.86,330.86,330.86,330.86,330.86,330.86,326.22,326.22,326.22,326.22,326.22,326.22,326.22,326.22,326.22,326.22,326.22,326.22,326.22,326.22,326.22,326.22,326.22,326.22,326.22,330.86,330.86,330.86,330.86,334.17,334.17,337.49,343.45,346.76,354.05,354.05,365.32,397.80,438.22,422.98,422.98,388.52,377.91,377.91,377.91,377.91,377.91,377.91,377.91,368.64,368.64,368.64,368.64,368.64,368.64,368.64,356.71,356.71,356.71,356.71,356.71,356.71,356.71,356.71,356.71,356.71,356.71,356.71,368.64,368.64,368.64,356.71,356.71,356.71,356.71,356.71,356.71,356.71,356.71,356.71,356.71,356.71,356.71,356.71,356.71,356.71,356.71,368.64,368.64,368.64,368.64,368.64,368.64,368.64,368.64,368.64,368.64,368.64,368.64,368.64,368.64,356.71,356.71,356.71,356.71,356.71,356.71,356.71,356.71,356.71,356.71,356.71,356.71,356.71,356.71,356.71,356.71,356.71,356.71,356.71,356.71,356.71,356.71,356.71,368.64,368.64,368.64,368.64,368.64,368.64,368.64,368.64,368.64,368.64,368.64,377.91,377.91,377.91,377.91,377.91,377.91,377.91,377.91,377.91,377.91,377.91,377.91,377.91,377.91,377.91,377.91,377.91,377.91,377.91,377.91,377.91,377.91,377.91,377.91,377.91
332.18,332.18,332.18,332.18,332.18,332.18,332.18,332.18,332.18,332.18,332.18,332.18,332.18,332.18,332.18,332.18,332.18,332.85,332.18,332.85,339.47,340.80,342.79,342.13,341.46,340.80,340.80,340.80,340.80,340.80,340.14,340.14,340.14,340.14,340.14,340.14,340.14,342.13,342.13,342.13,342.13,342.13,344.78,344.78,344.78,350.74,350.74,356.71,356.71,356.71,356.71,356.71,356.71,356.71,356.71,356.71,356.71,356.71,356.71,356.71,356.71,356.71,356.71,350.74,350.74,350.74,350.74,344.78,344.78,344.78,350.74,350.74,350.74,350.74,356.71,356.71,356.71,356.71,365.98,379.90,387.85,387.19,389.18,394.48,404.42,415.03,416.35,409.06,377.25,358.69,323.57,318.27,317.60,318.27,317.60,317.60,317.60,317.60,317.60,317.60,317.60,317.60,317.60,317.60,317.60,317.60,317.60,317.60,317.60,317.60,317.60,317.60,317.60,317.60,317.60,317.60,317.60,317.60,317.60,317.60,317.60,317.60,317.60,317.60,317.60,317.60,317.60,317.60,317.60,317.60,317.60,317.60,317.60,317.60,317.60,317.60,317.60,317.60,317.60,318.27,318.27,318.27,318.27,318.27,318.27,318.27,318.27,318.27,318.27,318.27,318.27,318.93,318.93,318.93,318.93,318.93,319.59,319.59,319.59,320.25,320.92,320.92,321.58,322.24,323.57,325.56,325.56,330.86,338.81,344.78,349.42,349.42,354.05,357.37,369.96,369.96,397.80,430.93,450.82,450.82,446.18,401.11,388.52,388.52,377.91,368.64,356.71,356.71,356.71,356.71,350.74,350.74,350.74,350.74,350.74,344.78,344.78,344.78,344.78,344.78,344.78,344.78,350.74,350.74,350.74,350.74,350.74,350.74,356.71,356.71,356.71,356.71,368.64,368.64,401.11,401.11,381.89,357.37,357.37,344.78,344.78,338.81,334.17,334.17,330.86,330.86,330.86,330.86,330.86,326.22,326.22,326.22,326.22,326.22,326.22,326.22,330.86,330.86,330.86,330.86,330.86,330.86,330.86,330.86,330.86,330.86,330.86,330.86,330.86,330.86,330.86,330.86,330.86,330.86,330.86,330.86,330.86,330.86,330.86,330.86,330.86,330.86,330.86,330.86,330.86,330.86,330.86,330.86,330.86,330.86,330.86,330.86,330.86,330.86,330.86,326.22,326.22,326.22,326.22,326.22,326.22,326.22,326.22,326.22,326.22,326.22,326.22,326.22,326.22,326.22,330.86,330.86,330.86,330.86,334.17,334.17,334.17,337.49,343.45,346.76,354.05,354.05,365.32,397.80,438.22,422.98,422.98,388.52,377.91,377.91,377.91,377.91,377.91,377.91,377.91,377.91,368.64,368.64,368.64,368.64,368.64,368.64,368.64,368.64,368.64,356.71,356.71,356.71,356.71,356.71,356.71,356.71,368.64,368.64,368.64,368.64,368.64,356.71,356.71,368.64,368.64,368.64,356.71,356.71,356.71,356.71,356.71,356.71,356.71,368.64,368.64,368.64,368.64,368.64,368.64,368.64,368.64,368.64,368.64,368.64,368.64,368.64,368.64,368.64,368.64,368.64,368.64,356.71,356.71,356.71,356.71,356.71,356.71,356.71,356.71,356.71,356.71,356.71,356.71,356.71,356.71,356.71,356.71,356.71,356.71,356.71,356.71,356.71,358.69,356.71,368.64,368.64,368.64,368.64,368.64,368.64,368.64,368.64,368.64,368.64,368.64,377.91,377.91,377.91,377.91,377.91,377.91,368.64,368.64,368.64,377.91,377.91,368.64,377.91,377.91,377.91,377.91,377.91,377.91,377.91,377.91,377.91,377.91,377.91,377.91,377.91
332.18,332.18,332.18,332.18,332.18,332.18,332.18,332.18,332.18,332.18,332.18,332.18,332.18,332.18,332.18,332.85,332.18,332.18,332.85,334.17,337.49,339.47,340.80,340.80,340.80,340.80,340.80,340.14,340.14,340.14,340.14,340.14,340.14,340.14,340.14,340.14,340.14,342.13,342.13,342.13,342.13,342.13,344.78,344.78,344.78,350.74,350.74,356.71,356.71,356.71,356.71,356.71,356.71,356.71,356.71,356.71,356.71,356.71,356.71,356.71,356.71,356.71,356.71,350.74,350.74,350.74,350.74,344.78,344.78,350.74,350.74,350.74,350.74,350.74,356.71,356.71,356.71,356.71,365.32,369.96,380.56,383.88,386.53,391.83,398.46,409.06,395.15,371.95,359.36,336.16,318.93,318.27,317.60,318.27,317.60,317.60,317.60,317.60,317.60,317.60,317.60,317.60,317.60,317.60,317.60,317.60,317.60,317.60,317.60,317.60,317.60,317.60,317.60,317.60,317.60,317.60,317.60,317.60,317.60,317.60,317.60,317.60,317.60,317.60,317.60,317.60,317.60,317.60,317.60,317.60,317.60,317.60,317.60,317.60,317.60,317.60,317.60,317.60,317.60,317.60,318.27,318.27,318.27,318.27,318.27,318.27,318.27,318.27,318.27,318.27,318.27,318.27,318.93,318.93,318.93,318.93,318.93,318.93,319.59,320.25,320.92,320.92,321.58,322.24,323.57,325.56,325.56,330.86,338.81,344.78,349.42,349.42,354.05,357.37,369.96,369.96,397.80,430.93,450.82,450.82,446.18,401.11,388.52,388.52,377.91,368.64,356.71,356.71,356.71,356.71,350.74,350.74,350.74,350.74,350.74,344.78,344.78,344.78,344.78,344.78,344.78,344.78,350.74,350.74,350.74,350.74,350.74,350.74,350.74,356.71,356.71,356.71,368.64,368.64,401.11,401.11,379.90,357.37,357.37,357.37,348.09,341.46,334.17,334.17,334.17,330.86,330.86,330.86,330.86,326.22,326.22,326.22,326.22,326.22,326.22,330.86,330.86,330.86,330.86,330.86,330.86,330.86,330.86,330.86,330.86,330.86,330.86,330.86,330.86,330.86,330.86,330.86,330.86,330.86,330.86,330.86,330.86,330.86,330.86,330.86,330.86,330.86,330.86,330.86,330.86,330.86,330.86,330.86,330.86,330.86,330.86,330.86,330.86,330.86,330.86,326.22,326.22,326.22,326.22,326.22,326.22,326.22,326.22,326.22,326.22,326.22,326.22,326.22,330.86,330.86,330.86,330.86,334.17,334.17,334.17,334.17,334.17,337.49,343.45,349.42,357.37,357.37,369.96,425.63,450.82,422.98,422.98,388.52,377.91,377.91,377.91,377.91,377.91,377.91,377.91,377.91,368.64,368.64,368.64,368.64,368.64,368.64,368.64,368.64,368.64,356.71,356.71,356.71,356.71,356.71,356.71,356.71,368.64,368.64,368.64,368.64,368.64,367.31,367.31,368.64,368.64,368.64,356.71,356.71,356.71,356.71,356.71,356.71,356.71,368.64,368.64,368.64,368.64,368.64,368.64,368.64,368.64,368.64,368.64,368.64,368.64,368.64,368.64,368.64,356.71,356.71,356.71,356.71,356.71,356.71,356.71,356.71,356.71,356.71,356.71,356.71,356.71,356.71,356.71,356.71,356.71,356.71,356.71,356.71,356.71,356.71,356.71,356.71,358.03,356.71,368.64,368.64,368.64,368.64,368.64,368.64,368.64,368.64,368.64,368.64,368.64,368.64,368.64,368.64,368.64,373.27,373.94,371.29,368.64,368.64,368.64,368.64,368.64,368.64,368.64,368.64,368.64,377.91,377.91,377.91,377.91,377.91,377.91,377.91,377.91,377.91
332.18,332.18,332.18,332.18,332.18,332.18,332.18,332.18,332.18,332.18,332.18,332.18,332.18,332.18,332.18,332.18,332.85,332.18,332.85,333.51,336.82,338.81,340.80,340.80,340.14,340.14,340.14,340.14,340.14,340.14,339.47,339.47,340.14,340.14,340.14,340.14,340.14,340.14,340.14,342.13,342.13,342.13,344.78,344.78,344.78,344.78,350.74,350.74,350.74,356.71,356.71,356.71,356.71,368.64,368.64,368.64,356.71,356.71,356.71,356.71,356.71,356.71,356.71,356.71,350.74,350.74,350.74,344.78,344.78,350.74,350.74,350.74,350.74,350.74,350.74,350.74,356.71,356.71,359.36,365.32,371.95,376.59,380.56,386.53,388.52,374.60,366.65,356.04,336.82,318.27,317.60,318.27,317.60,317.60,318.27,317.60,317.60,317.60,317.60,317.60,317.60,317.60,317.60,317.60,317.60,317.60,317.60,317.60,317.60,317.60,317.60,317.60,317.60,317.60,317.60,317.60,317.60,317.60,317.60,317.60,317.60,317.60,317.60,317.60,317.60,317.60,317.60,317.60,317.60,317.60,317.60,317.60,317.60,317.60,317.60,317.60,317.60,317.60,317.60,317.60,317.60,317.60,318.27,318.27,318.27,318.27,318.27,318.27,318.27,318.27,318.27,318.27,318.93,318.93,318.93,318.93,318.93,318.93,319.59,319.59,320.92,320.92,321.58,322.24,323.57,325.56,325.56,330.86,338.81,344.78,349.42,349.42,354.05,360.68,369.96,369.96,397.80,438.22,450.82,450.82,422.98,401.11,388.52,388.52,377.91,368.64,356.71,356.71,356.71,356.71,350.74,350.74,350.74,350.74,350.74,344.78,344.78,344.78,344.78,344.78,344.78,350.74,350.74,350.74,350.74,350.74,356.71,356.71,356.71,356.71,356.71,356.71,377.91,377.91,401.11,401.11,379.24,357.37,357.37,357.37,348.09,342.79,334.17,334.17,330.86,330.86,330.86,330.86,330.86,326.22,326.22,326.22,326.22,326.22,326.22,330.86,330.86,330.86,330.86,330.86,330.86,330.86,330.86,330.86,330.86,330.86,330.86,330.86,330.86,330.86,330.86,330.86,330.86,330.86,330.86,330.86,330.86,330.86,330.86,330.86,330.86,330.86,330.86,330.86,330.86,330.86,330.86,330.86,330.86,330.86,330.86,330.86,330.86,330.86,330.86,326.22,326.22,326.22,326.22,326.22,326.22,326.22,326.22,326.22,326.22,326.22,326.22,326.22,330.86,330.86,330.86,330.86,334.17,334.17,334.17,334.17,334.17,337.49,343.45,349.42,357.37,357.37,369.96,425.63,450.82,422.98,422.98,388.52,377.91,377.91,377.91,377.91,377.91,377.91,377.91,377.91,377.91,377.91,368.64,368.64,368.64,368.64,368.64,368.64,368.64,368.64,368.64,368.64,368.64,368.64,368.64,368.64,368.64,368.64,368.64,368.64,368.64,368.64,368.64,368.64,368.64,368.64,368.64,368.64,368.64,368.64,368.64,368.64,368.64,368.64,368.64,368.64,368.64,368.64,368.64,368.64,368.64,368.64,368.64,368.64,368.64,368.64,368.64,368.64,368.64,368.64,368.64,356.71,356.71,356.71,356.71,356.71,356.71,356.71,356.71,356.71,356.71,356.71,356.71,356.71,356.71,356.71,356.71,356.71,356.71,356.71,356.71,356.71,356.71,356.71,368.64,368.64,368.64,368.64,368.64,368.64,368.64,368.64,368.64,368.64,368.64,368.64,368.64,368.64,368.64,370.62,371.95,371.29,368.64,368.64,368.64,368.64,368.64,368.64,368.64,368.64,368.64,377.91,377.91,377.91,377.91,377.91,377.91,377.91,377.91,377.91
332.18,332.18,332.18,332.18,332.18,332.18,332.18,332.18,332.18,332.18,332.18,332.18,332.18,332.18,332.18,332.18,332.18,332.18,332.18,334.84,336.82,338.81,340.14,340.14,340.14,340.14,340.14,339.47,340.14,340.14,339.47,339.47,339.47,339.47,339.47,339.47,339.47,340.14,340.14,342.13,342.13,342.13,342.13,344.78,344.78,344.78,350.74,350.74,350.74,356.71,356.71,356.71,356.71,368.64,368.64,368.64,356.71,356.71,356.71,356.71,356.71,356.71,356.71,356.71,350.74,350.74,350.74,344.78,344.78,350.74,350.74,350.74,350.74,350.74,350.74,350.74,350.74,350.74,352.07,356.04,361.35,367.97,373.94,375.26,362.01,356.71,342.79,327.55,317.60,318.27,317.60,317.60,317.60,318.27,317.60,317.60,317.60,317.60,317.60,317.60,317.60,317.60,317.60,317.60,317.60,317.60,317.60,317.60,317.60,317.60,317.60,317.60,317.60,317.60,317.60,317.60,317.60,317.60,317.60,317.60,317.60,317.60,317.60,317.60,317.60,317.60,317.60,317.60,317.60,317.60,317.60,317.60,317.60,317.60,317.60,317.60,317.60,317.60,317.60,317.60,317.60,317.60,318.27,318.27,318.27,318.27,318.27,318.27,318.27,318.27,318.27,318.27,318.93,318.93,318.93,318.93,318.93,318.93,319.59,319.59,320.92,320.92,321.58,322.24,323.57,325.56,325.56,334.17,340.14,346.76,351.40,351.40,354.05,360.68,377.91,377.91,425.63,438.22,446.18,422.98,422.98,401.11,388.52,388.52,377.91,368.64,356.71,356.71,356.71,356.71,350.74,350.74,350.74,350.74,350.74,350.74,350.74,350.74,350.74,350.74,350.74,350.74,350.74,350.74,350.74,356.71,356.71,356.71,356.71,356.71,356.71,356.71,377.91,377.91,401.11,401.11,379.90,357.37,357.37,357.37,347.43,337.49,334.17,334.17,330.86,330.86,330.86,330.86,330.86,330.86,330.86,330.86,330.86,330.86,330.86,330.86,330.86,330.86,330.86,330.86,330.86,330.86,330.86,330.86,330.86,330.86,330.86,330.86,330.86,330.86,330.86,330.86,330.86,330.86,330.86,330.86,330.86,330.86,330.86,330.86,330.86,330.86,330.86,330.86,330.86,330.86,330.86,330.86,330.86,330.86,330.86,330.86,330.86,330.86,330.86,326.22,326.22,326.22,326.22,326.22,326.22,326.22,326.22,326.22,326.22,326.22,326.22,326.22,330.86,330.86,330.86,330.86,334.17,334.17,334.17,337.49,337.49,338.81,344.78,349.42,369.96,369.96,369.96,425.63,450.82,422.98,422.98,388.52,377.91,377.91,377.91,377.91,377.91,377.91,377.91,377.91,377.91,377.91,377.91,368.64,368.64,368.64,368.64,368.64,368.64,368.64,368.64,368.64,368.64,368.64,368.64,368.64,368.64,368.64,368.64,368.64,368.64,368.64,368.64,368.64,368.64,368.64,368.64,368.64,368.64,368.64,368.64,368.64,368.64,368.64,368.64,377.91,377.91,377.91,377.91,377.91,377.91,377.91,377.91,377.91,377.91,368.64,368.64,368.64,368.64,368.64,368.64,356.71,356.71,356.71,356.71,356.71,356.71,356.71,356.71,356.71,356.71,356.71,356.71,356.71,356.71,356.71,356.71,356.71,356.71,356.71,356.71,356.71,356.71,356.71,368.64,368.64,368.64,368.64,368.64,368.64,368.64,368.64,368.64,368.64,368.64,368.64,368.64,368.64,368.64,368.64,368.64,368.64,368.64,368.64,368.64,368.64,368.64,368.64,368.64,377.91,377.91,377.91,377.91,377.91,377.91,377.91,377.91,377.91,377.91,388.52
332.18,332.18,332.18,332.18,332.18,332.18,332.18,332.18,332.18,332.18,332.18,332.18,332.18,332.18,332.18,332.85,332.18,332.85,332.18,334.84,336.82,338.81,340.14,340.14,339.47,340.14,339.47,339.47,339.47,340.14,339.47,339.47,339.47,339.47,339.47,339.47,340.14,340.14,340.14,342.13,342.13,342.13,342.13,344.78,344.78,344.78,350.74,350.74,350.74,356.71,356.71,356.71,356.71,368.64,368.64,368.64,356.71,356.71,356.71,356.71,356.71,356.71,356.71,356.71,350.74,350.74,350.74,350.74,344.78,350.74,350.74,350.74,350.74,350.74,350.74,350.74,350.74,350.74,351.40,352.07,354.05,358.69,364.00,359.36,352.07,334.17,318.93,318.27,317.60,318.27,317.60,318.27,318.27,317.60,318.27,317.60,317.60,317.60,317.60,317.60,317.60,317.60,317.60,317.60,317.60,317.60,317.60,317.60,317.60,317.60,317.60,317.60,317.60,317.60,317.60,317.60,317.60,317.60,317.60,317.60,317.60,317.60,317.60,317.60,317.60,317.60,317.60,317.60,317.60,317.60,317.60,317.60,317.60,317.60,317.60,317.60,317.60,317.60,317.60,317.60,317.60,317.60,318.27,318.27,318.27,318.27,318.27,318.27,318.27,318.27,318.27,318.27,318.93,318.93,318.93,318.93,318.93,318.93,319.59,319.59,320.92,320.92,321.58,322.24,323.57,325.56,325.56,334.17,340.14,349.42,351.40,351.40,357.37,365.32,377.91,377.91,425.63,450.82,446.18,422.98,422.98,401.11,388.52,388.52,377.91,368.64,356.71,356.71,356.71,356.71,350.74,350.74,350.74,350.74,350.74,350.74,350.74,350.74,350.74,350.74,350.74,350.74,350.74,350.74,350.74,356.71,356.71,356.71,356.71,356.71,356.71,356.71,377.91,377.91,377.91,390.51,381.89,367.97,360.68,353.39,348.75,337.49,334.17,334.17,330.86,330.86,330.86,330.86,330.86,330.86,330.86,330.86,330.86,330.86,330.86,330.86,330.86,330.86,330.86,330.86,330.86,330.86,330.86,330.86,330.86,330.86,330.86,334.17,334.17,330.86,330.86,334.17,330.86,330.86,330.86,330.86,330.86,330.86,330.86,330.86,330.86,330.86,330.86,330.86,334.17,330.86,330.86,330.86,330.86,330.86,330.86,330.86,330.86,330.86,330.86,330.86,330.86,326.22,326.22,326.22,326.22,326.22,326.22,326.22,326.22,326.22,326.22,330.86,330.86,330.86,330.86,334.17,334.17,334.17,334.17,337.49,337.49,338.81,344.78,351.40,377.91,377.91,377.91,430.93,446.18,401.11,401.11,388.52,377.91,377.91,377.91,377.91,377.91,377.91,377.91,377.91,377.91,377.91,377.91,368.64,368.64,368.64,368.64,368.64,368.64,368.64,368.64,368.64,368.64,368.64,368.64,368.64,368.64,368.64,368.64,368.64,368.64,368.64,368.64,356.71,356.71,368.64,368.64,368.64,368.64,368.64,368.64,368.64,368.64,368.64,368.64,377.91,377.91,377.91,377.91,377.91,377.91,377.91,377.91,377.91,377.91,368.64,368.64,368.64,368.64,368.64,368.64,356.71,356.71,356.71,356.71,356.71,356.71,356.71,356.71,356.71,356.71,356.71,356.71,356.71,356.71,356.71,356.71,356.71,356.71,356.71,356.71,356.71,356.71,356.71,368.64,368.64,368.64,368.64,368.64,368.64,368.64,368.64,368.64,368.64,368.64,368.64,368.64,368.64,368.64,368.64,368.64,368.64,368.64,368.64,368.64,368.64,368.64,368.64,368.64,377.91,377.91,377.91,377.91,377.91,377.91,377.91,377.91,377.91,377.91,388.52
332.18,332.18,332.18,332.18,332.18,332.18,332.18,332.18,332.18,332.18,332.18,332.18,332.18,332.18,332.18,332.18,332.18,332.85,332.18,332.85,336.16,338.81,340.80,340.14,340.14,339.47,340.14,339.47,339.47,339.47,339.47,339.47,339.47,339.47,339.47,339.47,340.14,340.14,340.14,340.14,342.13,342.13,342.13,344.78,344.78,344.78,350.74,350.74,350.74,356.71,356.71,356.71,356.71,368.64,368.64,368.64,368.64,368.64,368.64,368.64,356.71,356.71,356.71,356.71,356.71,356.71,350.74,350.74,350.74,350.74,350.74,350.74,350.74,350.74,350.74,350.74,350.74,352.07,352.07,352.73,354.05,356.04,359.36,348.09,339.47,320.92,318.27,317.60,317.60,317.60,317.60,317.60,317.60,317.60,317.60,317.60,317.60,317.60,317.60,317.60,317.60,317.60,317.60,317.60,317.60,317.60,317.60,317.60,317.60,317.60,317.60,317.60,317.60,317.60,317.60,317.60,317.60,317.60,317.60,317.60,317.60,317.60,317.60,317.60,317.60,317.60,317.60,317.60,317.60,317.60,317.60,317.60,317.60,317.60,317.60,317.60,317.60,317.60,317.60,317.60,317.60,317.60,317.60,318.27,318.27,318.27,318.27,318.27,318.27,318.27,318.27,318.27,318.27,318.27,318.93,318.93,318.93,318.93,319.59,319.59,320.92,320.92,321.58,322.24,323.57,325.56,325.56,334.17,340.14,349.42,351.40,351.40,357.37,365.32,377.91,377.91,425.63,450.82,446.18,422.98,422.98,401.11,388.52,388.52,377.91,368.64,356.71,356.71,356.71,356.71,356.71,356.71,350.74,350.74,350.74,350.74,350.74,350.74,350.74,350.74,350.74,350.74,350.74,350.74,356.71,356.71,356.71,356.71,368.64,368.64,368.64,377.91,388.52,388.52,388.52,385.20,384.54,376.59,364.66,354.05,344.11,337.49,334.17,334.17,330.86,330.86,330.86,330.86,330.86,330.86,330.86,330.86,330.86,330.86,330.86,330.86,330.86,330.86,330.86,330.86,330.86,330.86,330.86,330.86,330.86,330.86,330.86,334.17,334.17,330.86,330.86,334.17,330.86,330.86,330.86,330.86,330.86,330.86,330.86,330.86,330.86,330.86,330.86,330.86,330.86,330.86,330.86,330.86,330.86,330.86,330.86,330.86,330.86,330.86,330.86,330.86,330.86,326.22,326.22,326.22,326.22,326.22,326.22,326.22,326.22,326.22,326.22,330.86,330.86,330.86,330.86,334.17,334.17,334.17,334.17,337.49,337.49,338.81,344.78,351.40,360.68,360.68,377.91,430.93,446.18,401.11,401.11,388.52,377.91,377.91,377.91,377.91,377.91,377.91,377.91,377.91,377.91,377.91,377.91,377.91,377.91,368.64,368.64,368.64,368.64,368.64,368.64,368.64,368.64,368.64,368.64,368.64,368.64,368.64,368.64,368.64,368.64,368.64,368.64,368.64,368.64,368.64,368.64,368.64,368.64,368.64,368.64,368.64,368.64,377.91,377.91,377.91,377.91,377.91,377.91,377.91,377.91,377.91,377.91,377.91,377.91,377.91,377.91,368.64,368.64,368.64,368.64,356.71,356.71,356.71,356.71,356.71,356.71,356.71,356.71,356.71,356.71,356.71,356.71,356.71,356.71,356.71,356.71,356.71,356.71,356.71,356.71,356.71,356.71,356.71,368.64,368.64,368.64,368.64,368.64,368.64,368.64,368.64,368.64,368.64,368.64,368.64,368.64,368.64,368.64,368.64,368.64,368.64,368.64,368.64,368.64,368.64,368.64,368.64,368.64,368.64,368.64,377.91,377.91,377.91,377.91,377.91,377.91,377.91,377.91,388.52
332.18,332.18,332.18,332.18,332.18,332.18,332.18,332.18,332.18,332.18,332.18,332.18,332.18,332.18,332.18,332.18,332.85,332.18,332.85,334.17,336.16,338.15,340.14,339.47,340.14,339.47,339.47,339.47,339.47,339.47,339.47,339.47,339.47,339.47,339.47,339.47,339.47,340.14,340.14,340.14,342.13,342.13,342.13,344.78,344.78,344.78,350.74,350.74,350.74,356.71,356.71,356.71,356.71,368.64,368.64,368.64,368.64,368.64,368.64,368.64,368.64,356.71,356.71,356.71,356.71,356.71,356.71,350.74,350.74,350.74,350.74,350.74,350.74,344.78,344.78,349.42,350.74,350.74,351.40,352.73,353.39,354.72,355.38,343.45,329.53,318.27,318.27,317.60,318.27,317.60,317.60,317.60,317.60,317.60,317.60,317.60,317.60,317.60,317.60,317.60,317.60,317.60,317.60,317.60,317.60,317.60,317.60,317.60,317.60,317.60,317.60,317.60,317.60,317.60,317.60,317.60,317.60,317.60,317.60,317.60,317.60,317.60,317.60,317.60,317.60,317.60,317.60,317.60,317.60,317.60,317.60,317.60,317.60,317.60,317.60,317.60,317.60,317.60,317.60,317.60,317.60,317.60,317.60,317.60,318.27,318.27,318.27,318.27,318.27,318.27,318.27,318.27,318.27,318.27,318.93,318.93,318.93,318.93,319.59,319.59,320.92,320.92,321.58,322.91,326.22,326.22,326.22,337.49,343.45,349.42,351.40,351.40,357.37,365.32,377.91,377.91,425.63,450.82,446.18,422.98,422.98,401.11,388.52,388.52,368.64,368.64,356.71,356.71,356.71,356.71,356.71,356.71,356.71,350.74,350.74,350.74,350.74,350.74,350.74,350.74,350.74,356.71,356.71,356.71,356.71,356.71,356.71,368.64,368.64,368.64,368.64,388.52,388.52,388.52,388.52,394.48,391.17,371.95,362.67,354.05,339.47,337.49,334.17,334.17,330.86,330.86,330.86,330.86,330.86,330.86,330.86,330.86,330.86,330.86,330.86,330.86,330.86,330.86,330.86,330.86,330.86,330.86,334.17,334.17,334.17,334.17,334.17,334.17,334.17,334.17,334.17,334.17,334.17,334.17,334.17,334.17,334.17,334.17,330.86,330.86,330.86,330.86,330.86,330.86,330.86,330.86,330.86,330.86,330.86,330.86,330.86,330.86,330.86,330.86,330.86,330.86,330.86,326.22,326.22,326.22,326.22,326.22,326.22,326.22,326.22,326.22,326.22,330.86,330.86,330.86,330.86,334.17,334.17,334.17,337.49,337.49,337.49,340.14,346.76,351.40,360.68,360.68,377.91,430.93,446.18,401.11,401.11,388.52,377.91,377.91,377.91,377.91,377.91,377.91,377.91,377.91,377.91,377.91,377.91,377.91,377.91,368.64,368.64,368.64,368.64,368.64,368.64,368.64,368.64,368.64,368.64,368.64,368.64,368.64,368.64,368.64,368.64,368.64,368.64,368.64,368.64,368.64,368.64,368.64,368.64,368.64,368.64,368.64,377.91,377.91,377.91,377.91,377.91,377.91,388.52,388.52,388.52,388.52,388.52,377.91,377.91,377.91,377.91,368.64,368.64,368.64,368.64,368.64,356.71,356.71,356.71,356.71,356.71,356.71,356.71,356.71,356.71,356.71,356.71,356.71,356.71,356.71,356.71,356.71,356.71,356.71,356.71,356.71,356.71,356.71,368.64,368.64,368.64,368.64,368.64,368.64,368.64,368.64,368.64,368.64,368.64,368.64,368.64,368.64,368.64,368.64,368.64,368.64,368.64,368.64,368.64,368.64,368.64,368.64,368.64,368.64,368.64,377.91,377.91,377.91,377.91,377.91,377.91,377.91,377.91,388.52
332.18,332.18,332.18,332.18,332.18,332.18,332.18,332.18,332.18,332.18,332.18,332.18,332.18,332.18,332.18,332.18,332.85,332.18,332.85,334.17,337.49,337.49,340.14,339.47,339.47,340.14,339.47,339.47,339.47,339.47,339.47,339.47,339.47,339.47,339.47,339.47,339.47,340.14,340.14,340.14,342.13,342.13,342.13,344.78,344.78,344.78,350.74,350.74,350.74,356.71,356.71,356.71,356.71,368.64,368.64,368.64,368.64,368.64,368.64,368.64,368.64,356.71,356.71,356.71,356.71,356.71,356.71,350.74,350.74,350.74,350.74,344.78,344.78,347.43,347.43,348.09,350.08,350.74,350.74,351.40,352.73,354.05,346.10,341.46,324.89,318.27,317.60,317.60,317.60,317.60,317.60,317.60,317.60,317.60,317.60,317.60,317.60,317.60,317.60,317.60,317.60,317.60,317.60,317.60,317.60,317.60,317.60,317.60,317.60,317.60,317.60,317.60,317.60,317.60,317.60,317.60,317.60,317.60,317.60,317.60,317.60,317.60,317.60,317.60,317.60,317.60,317.60,317.60,317.60,317.60,317.60,317.60,317.60,317.60,317.60,317.60,317.60,317.60,317.60,317.60,317.60,317.60,317.60,317.60,318.27,318.27,318.27,318.27,318.27,318.27,318.27,318.27,318.27,318.27,318.93,318.93,318.93,318.93,319.59,320.25,320.92,320.92,321.58,323.57,327.55,329.53,334.84,343.45,343.45,349.42,354.05,354.05,357.37,397.80,397.80,397.80,430.93,450.82,422.98,401.11,401.11,401.11,377.91,377.91,368.64,368.64,356.71,356.71,356.71,356.71,356.71,356.71,356.71,350.74,350.74,350.74,350.74,350.74,350.74,350.74,350.74,356.71,356.71,356.71,356.71,356.71,356.71,368.64,368.64,368.64,368.64,388.52,388.52,400.45,403.10,400.45,387.19,373.27,360.68,354.05,342.79,337.49,335.50,334.17,330.86,330.86,330.86,330.86,330.86,330.86,330.86,330.86,330.86,330.86,330.86,330.86,330.86,330.86,330.86,330.86,334.17,334.17,334.17,334.17,334.17,334.17,334.17,334.17,334.17,334.17,334.17,334.17,334.17,334.17,334.17,334.17,334.17,334.17,334.17,334.17,330.86,330.86,330.86,330.86,330.86,330.86,330.86,330.86,330.86,330.86,330.86,330.86,330.86,330.86,330.86,330.86,330.86,326.22,326.22,326.22,326.22,326.22,326.22,326.22,326.22,326.22,326.22,330.86,330.86,330.86,330.86,334.17,334.17,334.17,337.49,337.49,337.49,340.14,346.76,365.32,365.32,365.32,377.91,430.93,446.18,401.11,401.11,388.52,377.91,377.91,377.91,377.91,377.91,377.91,377.91,377.91,377.91,377.91,377.91,368.64,368.64,368.64,368.64,368.64,368.64,368.64,368.64,368.64,368.64,368.64,368.64,368.64,368.64,368.64,368.64,368.64,368.64,356.71,356.71,356.71,356.71,356.71,368.64,368.64,368.64,368.64,368.64,368.64,377.91,377.91,377.91,377.91,388.52,388.52,388.52,388.52,388.52,388.52,388.52,377.91,377.91,377.91,377.91,368.64,368.64,368.64,368.64,368.64,356.71,356.71,356.71,356.71,356.71,356.71,356.71,356.71,356.71,356.71,356.71,356.71,356.71,356.71,356.71,356.71,356.71,356.71,356.71,356.71,356.71,356.71,368.64,368.64,368.64,368.64,368.64,368.64,368.64,368.64,368.64,368.64,368.64,368.64,368.64,368.64,368.64,368.64,368.64,368.64,368.64,368.64,368.64,368.64,368.64,368.64,368.64,368.64,368.64,368.64,377.91,377.91,377.91,377.91,377.91,377.91,377.91,377.91
332.18,332.18,332.18,332.18,332.18,332.18,332.18,332.18,332.18,332.18,332.18,332.18,332.18,332.18,332.18,332.18,332.18,332.18,332.85,334.17,336.16,338.15,340.80,339.47,339.47,340.14,339.47,339.47,339.47,339.47,339.47,339.47,339.47,339.47,339.47,339.47,340.14,340.14,340.14,340.14,342.13,342.13,342.13,344.78,344.78,344.78,350.74,350.74,350.74,356.71,356.71,356.71,356.71,368.64,368.64,368.64,368.64,368.64,368.64,368.64,368.64,368.64,368.64,356.71,356.71,356.71,356.71,356.71,350.74,350.74,350.74,344.78,344.78,346.76,348.09,348.09,350.08,350.08,350.08,352.07,352.07,351.40,344.78,335.50,320.25,317.60,317.60,318.27,317.60,317.60,317.60,317.60,317.60,317.60,317.60,317.60,317.60,317.60,317.60,317.60,317.60,317.60,317.60,317.60,317.60,317.60,317.60,317.60,317.60,317.60,317.60,317.60,317.60,317.60,317.60,317.60,317.60,317.60,317.60,317.60,317.60,317.60,317.60,317.60,317.60,317.60,317.60,317.60,317.60,317.60,317.60,317.60,317.60,317.60,317.60,317.60,317.60,317.60,317.60,317.60,317.60,317.60,317.60,317.60,318.27,318.27,318.27,318.27,318.27,318.27,318.27,318.27,318.27,318.27,318.93,318.93,318.93,318.93,319.59,320.25,320.92,320.92,322.24,325.56,328.87,337.49,337.49,337.49,343.45,349.42,354.05,354.05,357.37,365.32,397.80,397.80,430.93,450.82,422.98,401.11,401.11,401.11,377.91,377.91,368.64,368.64,356.71,356.71,356.71,356.71,356.71,356.71,356.71,350.74,350.74,350.74,350.74,356.71,356.71,356.71,356.71,356.71,356.71,356.71,368.64,368.64,368.64,368.64,377.91,377.91,377.91,401.11,446.18,446.18,446.18,404.42,378.58,365.98,358.03,342.79,337.49,333.51,330.86,330.86,330.86,330.86,330.86,330.86,330.86,330.86,330.86,330.86,330.86,330.86,330.86,330.86,330.86,330.86,330.86,330.86,334.17,334.17,334.17,334.17,334.17,334.17,334.17,334.17,334.17,334.17,334.17,334.17,334.17,334.17,334.17,334.17,334.17,334.17,334.17,334.17,334.17,334.17,334.17,334.17,334.17,330.86,330.86,330.86,330.86,330.86,330.86,330.86,330.86,330.86,330.86,330.86,330.86,330.86,330.86,330.86,330.86,330.86,330.86,330.86,330.86,330.86,330.86,330.86,330.86,330.86,334.17,334.17,334.17,334.17,337.49,337.49,337.49,340.14,346.76,365.32,365.32,365.32,397.80,438.22,422.98,388.52,388.52,377.91,377.91,377.91,377.91,377.91,377.91,377.91,377.91,377.91,377.91,377.91,377.91,368.64,368.64,368.64,368.64,368.64,368.64,368.64,368.64,368.64,368.64,368.64,368.64,368.64,368.64,368.64,368.64,356.71,356.71,356.71,356.71,356.71,356.71,356.71,368.64,368.64,368.64,368.64,368.64,368.64,377.91,377.91,377.91,377.91,388.52,388.52,388.52,388.52,388.52,388.52,388.52,377.91,377.91,377.91,377.91,368.64,368.64,368.64,368.64,368.64,356.71,356.71,356.71,356.71,356.71,356.71,356.71,356.71,356.71,356.71,356.71,356.71,356.71,356.71,356.71,356.71,356.71,356.71,356.71,356.71,356.71,356.71,356.71,368.64,368.64,368.64,368.64,368.64,368.64,368.64,368.64,368.64,368.64,368.64,368.64,368.64,368.64,356.71,356.71,356.71,356.71,356.71,368.64,368.64,368.64,368.64,368.64,368.64,368.64,368.64,372.61,375.26,375.26,377.91,377.91,377.91,377.91,377.91
332.18,332.18,332.18,332.18,332.18,332.18,332.18,332.18,332.18,332.18,332.18,332.18,332.18,332.18,332.18,332.18,332.85,332.85,332.18,334.17,336.82,339.47,340.14,339.47,340.14,339.47,339.47,339.47,339.47,339.47,339.47,339.47,339.47,339.47,340.14,340.14,340.14,340.14,340.14,340.14,342.13,342.13,342.13,344.78,344.78,344.78,350.74,350.74,350.74,356.71,356.71,356.71,356.71,368.64,368.64,368.64,368.64,368.64,368.64,368.64,368.64,368.64,368.64,356.71,356.71,356.71,356.71,356.71,350.74,350.74,350.74,348.75,346.76,346.76,346.76,347.43,348.75,350.08,351.40,350.74,351.40,351.40,338.81,329.53,318.27,317.60,318.27,317.60,317.60,318.27,317.60,317.60,317.60,317.60,317.60,317.60,317.60,317.60,317.60,317.60,317.60,317.60,317.60,317.60,317.60,317.60,317.60,317.60,317.60,317.60,317.60,317.60,317.60,317.60,317.60,317.60,317.60,317.60,317.60,317.60,317.60,317.60,317.60,317.60,317.60,317.60,317.60,317.60,317.60,317.60,317.60,317.60,317.60,317.60,317.60,317.60,317.60,317.60,317.60,317.60,317.60,317.60,317.60,317.60,317.60,317.60,318.27,318.27,318.27,318.27,318.27,318.27,318.27,318.27,318.93,318.93,318.93,318.93,319.59,320.25,320.92,320.92,322.24,326.22,327.55,337.49,337.49,337.49,343.45,349.42,354.05,354.05,357.37,365.32,397.80,397.80,430.93,450.82,422.98,401.11,401.11,388.52,377.91,377.91,368.64,368.64,356.71,356.71,356.71,356.71,356.71,356.71,356.71,356.71,356.71,356.71,350.74,356.71,356.71,356.71,356.71,356.71,368.64,368.64,368.64,368.64,368.64,377.91,388.52,388.52,401.11,446.18,446.18,446.18,377.91,377.91,369.96,369.96,356.04,340.80,338.15,334.17,330.86,330.86,330.86,330.86,330.86,330.86,330.86,330.86,330.86,330.86,330.86,330.86,330.86,330.86,330.86,334.17,334.17,334.17,334.17,334.17,334.17,334.17,334.17,334.17,334.17,334.17,334.17,334.17,334.17,334.17,334.17,334.17,334.17,334.17,334.17,334.17,334.17,334.17,334.17,334.17,334.17,334.17,334.17,330.86,330.86,330.86,330.86,330.86,330.86,330.86,330.86,330.86,330.86,330.86,330.86,330.86,330.86,326.22,326.22,326.22,326.22,326.22,326.22,326.22,326.22,330.86,330.86,330.86,330.86,334.17,334.17,334.17,337.49,337.49,337.49,340.14,346.76,365.32,365.32,365.32,397.80,438.22,422.98,388.52,388.52,377.91,377.91,377.91,377.91,377.91,377.91,377.91,377.91,377.91,377.91,377.91,377.91,368.64,368.64,368.64,368.64,368.64,368.64,368.64,368.64,368.64,368.64,368.64,368.64,368.64,368.64,368.64,368.64,356.71,356.71,356.71,356.71,356.71,356.71,356.71,368.64,368.64,368.64,368.64,368.64,368.64,377.91,377.91,377.91,377.91,388.52,388.52,388.52,388.52,388.52,388.52,388.52,377.91,377.91,377.91,377.91,368.64,368.64,368.64,368.64,368.64,356.71,356.71,356.71,356.71,356.71,356.71,356.71,356.71,356.71,356.71,356.71,356.71,356.71,356.71,356.71,356.71,356.71,356.71,356.71,356.71,356.71,356.71,356.71,368.64,368.64,368.64,368.64,368.64,368.64,368.64,368.64,368.64,368.64,368.64,368.64,368.64,368.64,356.71,356.71,356.71,356.71,356.71,368.64,368.64,368.64,368.64,368.64,368.64,368.64,368.64,371.95,373.27,374.60,377.91,377.91,377.91,377.91,377.91
332.18,332.18,332.18,332.18,332.18,332.18,332.18,332.18,332.18,332.18,332.18,332.18,332.18,332.18,332.18,332.18,332.18,332.18,332.85,334.84,336.82,338.81,340.14,339.47,340.14,340.14,339.47,340.14,339.47,339.47,339.47,339.47,339.47,339.47,340.14,340.14,340.14,340.14,340.14,340.14,342.13,342.13,342.13,344.78,344.78,344.78,350.74,350.74,350.74,356.71,356.71,356.71,356.71,368.64,368.64,368.64,368.64,368.64,368.64,368.64,368.64,368.64,368.64,356.71,356.71,356.71,356.71,356.71,350.74,350.74,350.74,350.74,348.09,348.09,348.09,348.75,348.09,350.08,350.08,350.74,351.40,345.44,336.16,324.89,318.93,318.27,317.60,317.60,318.27,317.60,317.60,317.60,317.60,317.60,317.60,317.60,317.60,317.60,317.60,317.60,317.60,317.60,317.60,317.60,317.60,317.60,317.60,317.60,317.60,317.60,317.60,317.60,317.60,317.60,317.60,317.60,317.60,317.60,317.60,317.60,317.60,317.60,317.60,317.60,317.60,317.60,317.60,317.60,317.60,317.60,317.60,317.60,317.60,317.60,317.60,317.60,317.60,317.60,317.60,317.60,317.60,317.60,317.60,317.60,317.60,317.60,317.60,318.27,318.27,318.27,318.27,318.27,318.27,318.27,318.93,318.93,318.93,318.93,319.59,320.92,321.58,322.91,322.91,324.89,325.56,330.86,330.86,337.49,343.45,349.42,351.40,351.40,357.37,365.32,397.80,397.80,430.93,450.82,422.98,401.11,401.11,401.11,377.91,377.91,368.64,368.64,356.71,356.71,356.71,356.71,356.71,356.71,356.71,356.71,356.71,356.71,350.74,356.71,356.71,356.71,356.71,356.71,368.64,368.64,377.91,377.91,377.91,388.52,401.11,401.11,422.98,450.82,450.82,450.82,365.32,365.32,351.40,351.40,343.45,337.49,337.49,334.17,330.86,330.86,330.86,330.86,330.86,330.86,330.86,330.86,330.86,330.86,330.86,330.86,330.86,330.86,334.17,334.17,334.17,334.17,334.17,334.17,334.17,334.17,334.17,334.17,334.17,334.17,334.17,334.17,334.17,334.17,334.17,334.17,334.17,334.17,334.17,334.17,334.17,334.17,334.17,334.17,334.17,334.17,334.17,334.17,334.17,330.86,330.86,330.86,330.86,330.86,330.86,330.86,330.86,330.86,330.86,330.86,330.86,326.22,326.22,326.22,326.22,326.22,326.22,326.22,326.22,330.86,330.86,330.86,330.86,334.17,334.17,334.17,337.49,337.49,337.49,340.14,346.76,357.37,397.80,397.80,397.80,438.22,401.11,388.52,388.52,377.91,377.91,377.91,377.91,377.91,377.91,377.91,377.91,377.91,377.91,377.91,368.64,368.64,368.64,368.64,368.64,368.64,368.64,368.64,368.64,368.64,368.64,368.64,368.64,368.64,368.64,356.71,356.71,356.71,356.71,356.71,356.71,356.71,356.71,356.71,368.64,368.64,368.64,368.64,368.64,368.64,377.91,377.91,377.91,377.91,388.52,388.52,388.52,388.52,388.52,388.52,388.52,377.91,377.91,377.91,377.91,368.64,368.64,368.64,368.64,368.64,356.71,356.71,356.71,356.71,356.71,356.71,356.71,356.71,356.71,356.71,356.71,356.71,356.71,356.71,356.71,356.71,356.71,356.71,356.71,356.71,356.71,356.71,356.71,368.64,368.64,368.64,368.64,368.64,368.64,368.64,368.64,368.64,368.64,368.64,368.64,368.64,356.71,356.71,356.71,356.71,356.71,356.71,356.71,368.64,368.64,356.71,368.64,368.64,368.64,368.64,368.64,368.64,368.64,377.91,377.91,377.91,377.91,377.91
332.18,332.18,332.18,332.18,332.18,332.18,332.18,332.18,332.18,332.18,332.18,332.18,332.18,332.18,332.18,332.18,332.85,332.18,332.18,335.50,336.82,338.81,340.80,340.14,339.47,339.47,340.14,339.47,339.47,340.14,339.47,339.47,339.47,339.47,340.14,340.14,340.14,340.14,340.14,342.13,342.13,342.13,342.13,344.78,344.78,344.78,350.74,350.74,350.74,356.71,356.71,356.71,356.71,368.64,368.64,368.64,368.64,368.64,368.64,368.64,368.64,368.64,368.64,368.64,368.64,368.64,356.71,356.71,356.71,356.71,354.05,352.07,350.74,349.42,350.08,348.75,349.42,348.75,350.08,350.74,349.42,342.13,332.85,320.92,318.27,318.27,317.60,318.27,317.60,317.60,318.27,317.60,317.60,317.60,317.60,317.60,317.60,317.60,317.60,317.60,317.60,317.60,317.60,317.60,317.60,317.60,317.60,317.60,317.60,317.60,317.60,317.60,317.60,317.60,317.60,317.60,317.60,317.60,317.60,317.60,317.60,317.60,317.60,317.60,317.60,317.60,317.60,317.60,317.60,317.60,317.60,317.60,317.60,317.60,317.60,317.60,317.60,317.60,317.60,317.60,317.60,317.60,317.60,317.60,317.60,317.60,317.60,318.27,318.27,318.27,318.27,318.27,318.27,318.27,318.93,318.93,319.59,319.59,320.25,320.92,322.24,323.57,323.57,324.89,325.56,330.86,330.86,337.49,343.45,349.42,351.40,351.40,357.37,365.32,397.80,397.80,430.93,450.82,422.98,401.11,401.11,401.11,377.91,377.91,368.64,368.64,356.71,356.71,356.71,356.71,350.74,350.74,350.74,350.74,350.74,350.74,350.74,356.71,356.71,356.71,356.71,356.71,368.64,368.64,377.91,377.91,377.91,388.52,401.11,401.11,422.98,450.82,450.82,450.82,365.32,365.32,351.40,351.40,343.45,337.49,337.49,334.17,330.86,330.86,330.86,330.86,330.86,330.86,330.86,330.86,330.86,330.86,330.86,330.86,330.86,330.86,334.17,334.17,334.17,334.17,334.17,334.17,334.17,334.17,334.17,334.17,334.17,334.17,334.17,334.17,334.17,334.17,334.17,334.17,334.17,334.17,334.17,334.17,334.17,334.17,334.17,334.17,334.17,334.17,334.17,334.17,334.17,330.86,330.86,330.86,330.86,330.86,330.86,330.86,330.86,330.86,330.86,330.86,330.86,330.86,330.86,330.86,330.86,330.86,330.86,330.86,330.86,330.86,330.86,330.86,330.86,334.17,334.17,334.17,337.49,337.49,337.49,340.14,346.76,357.37,397.80,397.80,397.80,450.82,401.11,377.91,377.91,377.91,377.91,377.91,377.91,377.91,377.91,377.91,377.91,377.91,368.64,368.64,368.64,368.64,368.64,368.64,368.64,368.64,368.64,368.64,368.64,368.64,356.71,356.71,356.71,356.71,356.71,356.71,356.71,356.71,356.71,356.71,356.71,356.71,356.71,356.71,368.64,368.64,368.64,368.64,368.64,368.64,377.91,377.91,377.91,377.91,388.52,388.52,388.52,388.52,388.52,388.52,388.52,377.91,377.91,377.91,377.91,368.64,368.64,368.64,368.64,356.71,356.71,356.71,356.71,356.71,356.71,356.71,356.71,356.71,356.71,356.71,356.71,356.71,356.71,356.71,356.71,356.71,356.71,356.71,356.71,356.71,356.71,356.71,356.71,368.64,368.64,368.64,368.64,368.64,368.64,368.64,368.64,356.71,356.71,368.64,368.64,368.64,356.71,356.71,356.71,356.71,356.71,356.71,356.71,356.71,356.71,356.71,368.64,368.64,368.64,368.64,368.64,368.64,368.64,368.64,377.91,377.91,377.91,377.91
332.18,332.18,332.18,332.18,332.18,332.18,332.18,332.18,332.18,332.18,332.18,332.18,332.18,332.18,332.18,332.85,332.18,332.18,332.85,334.84,336.82,339.47,340.14,340.14,340.14,340.14,340.14,340.14,340.14,340.14,339.47,339.47,340.14,340.14,340.14,340.14,340.14,340.14,340.14,342.13,342.13,342.13,342.13,344.78,344.78,344.78,350.74,350.74,350.74,356.71,356.71,356.71,356.71,368.64,368.64,368.64,368.64,368.64,368.64,368.64,368.64,368.64,368.64,368.64,368.64,368.64,356.71,356.71,356.71,356.71,356.04,355.38,354.05,352.07,350.74,350.74,350.08,350.74,350.08,350.08,348.75,336.82,328.87,320.25,318.27,318.27,317.60,318.27,317.60,318.27,317.60,317.60,317.60,317.60,317.60,317.60,317.60,317.60,317.60,317.60,317.60,317.60,317.60,317.60,317.60,317.60,317.60,317.60,317.60,317.60,317.60,317.60,317.60,317.60,317.60,317.60,317.60,317.60,317.60,317.60,317.60,317.60,317.60,317.60,317.60,317.60,317.60,317.60,317.60,317.60,317.60,317.60,317.60,317.60,317.60,317.60,317.60,317.60,317.60,317.60,317.60,317.60,317.60,317.60,317.60,317.60,317.60,318.27,318.27,318.27,318.27,318.27,318.27,318.27,318.93,318.93,319.59,319.59,320.25,320.92,322.24,323.57,323.57,324.89,325.56,330.86,330.86,337.49,343.45,346.76,351.40,351.40,357.37,365.32,397.80,397.80,430.93,450.82,422.98,401.11,401.11,401.11,377.91,377.91,368.64,368.64,356.71,356.71,356.71,356.71,350.74,350.74,350.74,350.74,350.74,350.74,350.74,356.71,356.71,356.71,356.71,356.71,368.64,368.64,377.91,388.52,388.52,388.52,401.11,401.11,446.18,430.93,430.93,430.93,365.32,365.32,351.40,351.40,340.14,334.17,334.17,334.17,330.86,330.86,330.86,330.86,330.86,330.86,330.86,330.86,330.86,330.86,330.86,330.86,330.86,330.86,334.17,334.17,334.17,334.17,334.17,334.17,334.17,334.17,334.17,334.17,334.17,334.17,334.17,334.17,334.17,334.17,334.17,334.17,334.17,334.17,334.17,334.17,334.17,334.17,334.17,334.17,334.17,334.17,334.17,334.17,334.17,330.86,330.86,330.86,330.86,330.86,330.86,330.86,330.86,330.86,330.86,330.86,330.86,330.86,330.86,330.86,330.86,330.86,330.86,330.86,330.86,330.86,330.86,330.86,330.86,334.17,334.17,334.17,334.17,337.49,337.49,340.14,346.76,357.37,397.80,397.80,397.80,450.82,401.11,377.91,377.91,377.91,377.91,377.91,377.91,377.91,377.91,377.91,377.91,377.91,368.64,368.64,368.64,368.64,368.64,368.64,368.64,368.64,368.64,368.64,368.64,368.64,356.71,356.71,356.71,356.71,356.71,356.71,356.71,356.71,356.71,356.71,356.71,356.71,356.71,356.71,368.64,368.64,368.64,368.64,368.64,368.64,377.91,377.91,377.91,377.91,388.52,388.52,388.52,388.52,388.52,388.52,388.52,377.91,377.91,377.91,377.91,368.64,368.64,368.64,368.64,356.71,356.71,356.71,356.71,356.71,356.71,356.71,356.71,356.71,356.71,356.71,356.71,356.71,356.71,356.71,356.71,356.71,356.71,356.71,356.71,356.71,356.71,356.71,356.71,356.71,356.71,356.71,368.64,368.64,368.64,356.71,356.71,356.71,356.71,368.64,368.64,368.64,356.71,356.71,356.71,356.71,356.71,356.71,356.71,356.71,356.71,356.71,356.71,368.64,368.64,368.64,368.64,368.64,368.64,368.64,377.91,377.91,377.91,377.91
332.18,332.18,332.18,332.18,332.18,332.18,332.18,332.18,332.18,332.18,332.18,332.18,332.18,332.18,332.18,332.18,332.85,332.85,333.51,336.82,337.49,340.14,340.80,340.14,340.14,340.14,340.14,340.14,340.14,340.14,340.14,340.14,340.14,340.14,340.14,340.14,340.14,342.13,342.13,342.13,342.13,342.13,342.13,344.78,344.78,344.78,350.74,350.74,350.74,356.71,356.71,356.71,356.71,368.64,368.64,368.64,368.64,368.64,368.64,368.64,368.64,368.64,368.64,368.64,368.64,368.64,368.64,356.71,356.71,356.71,358.03,357.37,356.71,355.38,354.05,352.73,351.40,350.74,351.40,351.40,344.11,334.84,324.89,318.27,318.27,317.60,318.27,318.27,317.60,318.27,318.27,317.60,317.60,317.60,317.60,317.60,317.60,317.60,317.60,317.60,317.60,317.60,317.60,317.60,317.60,317.60,317.60,317.60,317.60,317.60,317.60,317.60,317.60,317.60,317.60,317.60,317.60,317.60,317.60,317.60,317.60,317.60,317.60,317.60,317.60,317.60,317.60,317.60,317.60,317.60,317.60,317.60,317.60,317.60,317.60,317.60,317.60,317.60,317.60,317.60,317.60,317.60,317.60,317.60,317.60,317.60,317.60,317.60,317.60,318.27,318.27,318.27,318.27,318.27,318.93,318.93,319.59,319.59,320.92,322.24,322.91,324.23,324.23,324.89,326.22,330.86,330.86,337.49,343.45,346.76,351.40,351.40,357.37,365.32,397.80,397.80,430.93,450.82,446.18,422.98,422.98,401.11,388.52,388.52,368.64,368.64,356.71,356.71,356.71,356.71,350.74,350.74,350.74,350.74,350.74,350.74,350.74,356.71,356.71,356.71,356.71,368.64,377.91,377.91,377.91,388.52,388.52,401.11,422.98,422.98,438.22,397.80,397.80,397.80,393.16,370.62,352.73,349.42,338.81,334.17,334.17,334.17,330.86,330.86,330.86,330.86,330.86,330.86,330.86,330.86,330.86,330.86,330.86,330.86,330.86,330.86,330.86,334.17,334.17,334.17,334.17,334.17,334.17,334.17,334.17,334.17,334.17,334.17,334.17,334.17,334.17,334.17,334.17,334.17,334.17,334.17,334.17,334.17,334.17,334.17,334.17,334.17,334.17,334.17,334.17,334.17,334.17,330.86,330.86,330.86,330.86,330.86,330.86,330.86,330.86,330.86,330.86,330.86,330.86,330.86,330.86,330.86,330.86,330.86,330.86,330.86,330.86,330.86,330.86,330.86,330.86,334.17,334.17,334.17,334.17,334.17,334.17,340.14,346.76,357.37,425.63,425.63,425.63,450.82,401.11,368.64,377.91,377.91,368.64,368.64,368.64,368.64,368.64,368.64,368.64,368.64,368.64,368.64,368.64,368.64,368.64,368.64,368.64,368.64,368.64,368.64,368.64,368.64,356.71,356.71,356.71,356.71,356.71,356.71,356.71,356.71,356.71,356.71,356.71,356.71,356.71,356.71,356.71,356.71,368.64,368.64,368.64,368.64,377.91,377.91,377.91,377.91,388.52,388.52,388.52,377.91,377.91,377.91,377.91,377.91,377.91,368.64,368.64,368.64,368.64,368.64,356.71,356.71,356.71,356.71,356.71,356.71,356.71,356.71,356.71,356.71,356.71,356.71,356.71,356.71,356.71,356.71,356.71,356.71,356.71,356.71,356.71,356.71,356.71,356.71,356.71,356.71,356.71,356.71,368.64,368.64,368.64,356.71,356.71,356.71,356.71,368.64,368.64,368.64,356.71,356.71,356.71,356.71,356.71,356.71,356.71,356.71,356.71,356.71,356.71,368.64,368.64,368.64,368.64,368.64,368.64,368.64,377.91,377.91,377.91,377.91
332.18,332.18,332.18,332.18,332.18,332.18,332.18,332.18,332.18,332.18,332.18,332.18,332.18,332.18,332.18,332.85,332.18,332.18,332.85,336.82,338.81,340.14,341.46,340.14,340.80,340.14,340.80,340.14,340.14,340.14,340.14,340.14,340.14,340.14,340.14,340.14,340.14,342.13,342.13,342.13,342.13,342.13,342.13,344.78,344.78,344.78,350.74,350.74,350.74,356.71,356.71,356.71,356.71,368.64,368.64,368.64,368.64,368.64,368.64,368.64,368.64,368.64,368.64,368.64,368.64,368.64,368.64,356.71,356.71,356.71,358.03,357.37,357.37,358.03,356.04,356.04,354.05,353.39,352.73,350.08,343.45,334.84,320.92,318.27,318.27,318.27,317.60,317.60,318.27,317.60,317.60,317.60,318.27,317.60,317.60,317.60,317.60,317.60,317.60,317.60,317.60,317.60,317.60,317.60,317.60,317.60,317.60,317.60,317.60,317.60,317.60,317.60,317.60,317.60,317.60,317.60,317.60,317.60,317.60,317.60,317.60,317.60,317.60,317.60,317.60,317.60,317.60,317.60,317.60,317.60,317.60,317.60,317.60,317.60,317.60,317.60,317.60,317.60,317.60,317.60,317.60,317.60,317.60,317.60,317.60,317.60,317.60,317.60,317.60,318.27,318.27,318.27,318.27,318.27,318.93,318.93,320.25,321.58,321.58,322.24,323.57,324.23,324.23,325.56,326.22,330.86,330.86,337.49,343.45,346.76,351.40,351.40,357.37,365.32,397.80,397.80,430.93,450.82,446.18,422.98,422.98,401.11,388.52,388.52,368.64,368.64,356.71,356.71,356.71,356.71,350.74,350.74,350.74,350.74,350.74,350.74,350.74,350.74,356.71,356.71,356.71,368.64,377.91,377.91,377.91,388.52,388.52,401.11,422.98,422.98,438.22,397.80,397.80,397.80,386.53,368.64,354.72,347.43,338.81,334.17,334.17,334.17,330.86,330.86,330.86,330.86,330.86,330.86,330.86,330.86,330.86,330.86,330.86,330.86,330.86,330.86,330.86,334.17,334.17,334.17,334.17,334.17,334.17,334.17,334.17,334.17,334.17,334.17,334.17,334.17,334.17,334.17,334.17,334.17,334.17,334.17,334.17,334.17,334.17,334.17,334.17,334.17,334.17,334.17,334.17,334.17,334.17,334.17,334.17,330.86,330.86,330.86,330.86,330.86,330.86,330.86,330.86,330.86,330.86,330.86,330.86,330.86,330.86,330.86,330.86,330.86,330.86,330.86,330.86,330.86,330.86,334.17,334.17,334.17,334.17,334.17,334.17,340.14,349.42,357.37,425.63,425.63,425.63,450.82,388.52,368.64,368.64,368.64,368.64,368.64,368.64,368.64,368.64,368.64,368.64,368.64,368.64,368.64,368.64,368.64,368.64,368.64,368.64,368.64,368.64,356.71,356.71,356.71,356.71,356.71,356.71,356.71,356.71,356.71,356.71,356.71,356.71,356.71,356.71,356.71,356.71,356.71,356.71,356.71,368.64,368.64,368.64,368.64,377.91,377.91,377.91,377.91,377.91,377.91,377.91,377.91,377.91,377.91,377.91,377.91,368.64,368.64,368.64,368.64,368.64,368.64,356.71,356.71,356.71,356.71,356.71,356.71,356.71,356.71,356.71,356.71,356.71,356.71,356.71,356.71,356.71,356.71,356.71,356.71,356.71,356.71,356.71,356.71,356.71,356.71,356.71,356.71,356.71,356.71,356.71,356.71,356.71,356.71,356.71,356.71,356.71,356.71,356.71,356.71,356.71,356.71,356.71,356.71,356.71,356.71,356.71,368.64,368.64,356.71,356.71,368.64,368.64,368.64,368.64,368.64,368.64,368.64,368.64,368.64,377.91,377.91
332.18,332.18,332.18,332.18,332.18,332.18,332.18,332.18,332.18,332.18,332.18,332.18,332.18,332.18,332.85,332.18,332.18,332.85,334.84,336.16,340.14,340.80,340.14,340.14,340.14,340.14,340.80,340.14,340.14,340.14,340.14,340.14,340.14,340.14,340.14,342.13,342.13,342.13,342.13,342.13,342.13,342.13,344.78,344.78,344.78,344.78,350.74,350.74,350.74,356.71,356.71,356.71,368.64,368.64,368.64,368.64,368.64,368.64,368.64,368.64,368.64,368.64,368.64,368.64,368.64,368.64,368.64,356.71,356.71,356.71,358.03,358.03,358.03,358.03,358.03,357.37,357.37,356.04,354.72,352.07,341.46,331.52,319.59,318.93,318.27,318.27,317.60,318.27,317.60,318.27,317.60,318.27,317.60,317.60,317.60,317.60,317.60,317.60,317.60,317.60,317.60,317.60,317.60,317.60,317.60,317.60,317.60,317.60,317.60,317.60,317.60,317.60,317.60,317.60,317.60,317.60,317.60,317.60,317.60,317.60,317.60,317.60,317.60,317.60,317.60,317.60,317.60,317.60,317.60,317.60,317.60,317.60,317.60,317.60,317.60,317.60,317.60,317.60,317.60,317.60,317.60,317.60,317.60,317.60,317.60,317.60,317.60,317.60,317.60,318.27,318.27,318.27,318.27,318.27,318.93,318.93,320.25,321.58,321.58,322.24,323.57,324.23,324.23,325.56,326.22,330.86,330.86,337.49,343.45,346.76,351.40,351.40,357.37,365.32,397.80,397.80,430.93,450.82,446.18,422.98,422.98,401.11,388.52,388.52,368.64,368.64,356.71,356.71,356.71,356.71,350.74,350.74,350.74,350.74,350.74,350.74,350.74,350.74,356.71,356.71,356.71,368.64,377.91,377.91,377.91,388.52,388.52,401.11,446.18,446.18,430.93,397.80,397.80,397.80,386.53,369.96,343.45,343.45,337.49,330.86,330.86,330.86,330.86,330.86,330.86,330.86,330.86,330.86,330.86,330.86,330.86,330.86,330.86,330.86,330.86,330.86,330.86,334.17,334.17,334.17,334.17,334.17,334.17,334.17,334.17,334.17,334.17,334.17,334.17,334.17,334.17,334.17,334.17,334.17,334.17,334.17,334.17,334.17,334.17,334.17,334.17,334.17,334.17,334.17,334.17,334.17,334.17,334.17,334.17,330.86,330.86,330.86,330.86,330.86,330.86,330.86,334.17,330.86,330.86,330.86,330.86,330.86,330.86,330.86,330.86,330.86,330.86,330.86,330.86,330.86,330.86,334.17,334.17,334.17,334.17,334.17,334.17,340.14,349.42,357.37,425.63,425.63,425.63,446.18,388.52,368.64,368.64,368.64,368.64,368.64,368.64,368.64,368.64,368.64,368.64,368.64,368.64,368.64,368.64,368.64,368.64,368.64,356.71,356.71,356.71,356.71,356.71,356.71,356.71,356.71,356.71,356.71,356.71,356.71,356.71,356.71,356.71,356.71,356.71,356.71,356.71,356.71,356.71,356.71,356.71,356.71,368.64,368.64,368.64,368.64,368.64,377.91,377.91,377.91,377.91,377.91,377.91,368.64,368.64,368.64,368.64,368.64,368.64,368.64,368.64,368.64,356.71,356.71,356.71,356.71,356.71,356.71,356.71,356.71,356.71,356.71,356.71,356.71,356.71,356.71,356.71,356.71,356.71,356.71,356.71,356.71,356.71,356.71,356.71,356.71,356.71,356.71,356.71,356.71,356.71,356.71,356.71,356.71,356.71,356.71,356.71,356.71,356.71,356.71,356.71,356.71,356.71,356.71,356.71,356.71,356.71,368.64,368.64,356.71,356.71,356.71,356.71,356.71,368.64,368.64,368.64,368.64,368.64,368.64,368.64,368.64
332.18,332.18,332.18,332.18,332.18,332.18,332.18,332.18,332.18,332.18,332.18,332.18,332.85,332.18,332.18,332.18,332.85,332.85,334.84,336.82,340.80,340.80,340.14,340.80,340.80,340.14,340.80,340.14,340.80,340.14,340.14,340.14,340.14,340.14,340.14,342.13,342.13,342.13,342.13,344.78,344.78,344.78,344.78,344.78,344.78,350.74,350.74,350.74,350.74,356.71,356.71,356.71,368.64,368.64,368.64,368.64,368.64,368.64,368.64,368.64,368.64,368.64,368.64,368.64,368.64,368.64,368.64,356.71,356.71,356.71,358.69,358.03,358.03,358.03,358.69,358.03,358.69,358.03,357.37,353.39,340.80,331.52,319.59,318.27,318.27,318.27,318.27,318.27,318.27,317.60,317.60,317.60,317.60,318.27,317.60,317.60,317.60,317.60,317.60,317.60,317.60,317.60,317.60,317.60,317.60,317.60,317.60,317.60,317.60,317.60,317.60,317.60,317.60,317.60,317.60,317.60,317.60,317.60,317.60,317.60,317.60,317.60,317.60,317.60,317.60,317.60,317.60,317.60,317.60,317.60,317.60,317.60,317.60,317.60,317.60,317.60,317.60,317.60,317.60,317.60,317.60,317.60,317.60,317.60,317.60,317.60,317.60,317.60,317.60,317.60,318.27,318.27,318.27,318.27,318.93,319.59,320.92,322.91,322.91,322.91,324.23,324.89,324.89,325.56,326.22,330.86,330.86,337.49,343.45,346.76,351.40,351.40,357.37,365.32,397.80,397.80,430.93,450.82,446.18,446.18,422.98,401.11,388.52,388.52,368.64,368.64,356.71,356.71,350.74,350.74,350.74,350.74,350.74,350.74,350.74,350.74,350.74,350.74,350.74,356.71,356.71,368.64,368.64,374.60,381.23,388.52,388.52,401.11,450.82,450.82,425.63,425.63,410.39,401.77,375.26,363.33,340.14,340.14,337.49,330.86,330.86,330.86,330.86,330.86,330.86,330.86,330.86,330.86,330.86,330.86,330.86,330.86,330.86,330.86,330.86,330.86,330.86,330.86,330.86,334.17,334.17,334.17,334.17,334.17,334.17,334.17,334.17,334.17,334.17,334.17,334.17,334.17,334.17,334.17,334.17,334.17,334.17,334.17,334.17,334.17,334.17,334.17,334.17,334.17,334.17,334.17,334.17,334.17,334.17,330.86,330.86,330.86,330.86,330.86,330.86,330.86,330.86,330.86,330.86,330.86,330.86,330.86,330.86,330.86,330.86,330.86,330.86,330.86,330.86,330.86,330.86,334.17,334.17,334.17,334.17,334.17,334.17,340.14,349.42,357.37,425.63,425.63,425.63,446.18,388.52,368.64,368.64,368.64,368.64,368.64,368.64,368.64,368.64,368.64,368.64,368.64,368.64,368.64,368.64,368.64,368.64,368.64,356.71,356.71,356.71,356.71,356.71,356.71,356.71,356.71,356.71,356.71,356.71,356.71,356.71,356.71,356.71,356.71,356.71,356.71,356.71,356.71,356.71,356.71,356.71,356.71,368.64,368.64,368.64,368.64,368.64,377.91,377.91,377.91,377.91,377.91,377.91,368.64,368.64,368.64,368.64,368.64,368.64,368.64,368.64,368.64,356.71,356.71,356.71,356.71,356.71,356.71,356.71,356.71,356.71,356.71,356.71,356.71,356.71,356.71,356.71,356.71,356.71,356.71,356.71,356.71,356.71,356.71,356.71,356.71,356.71,356.71,356.71,356.71,356.71,356.71,356.71,356.71,356.71,356.71,356.71,356.71,356.71,356.71,356.71,356.71,356.71,356.71,356.71,356.71,356.71,368.64,368.64,356.71,356.71,356.71,356.71,356.71,368.64,368.64,368.64,368.64,368.64,368.64,368.64,368.64
332.18,332.18,332.18,332.18,332.18,332.18,332.18,332.18,332.18,332.85,332.18,332.85,332.18,332.85,332.18,332.85,332.18,332.85,336.82,338.15,340.80,340.14,341.46,340.14,340.80,340.14,340.80,340.14,340.80,340.14,340.80,340.80,340.14,340.14,340.14,342.13,342.13,342.13,342.13,344.78,344.78,344.78,344.78,344.78,344.78,350.74,350.74,350.74,350.74,356.71,356.71,356.71,356.71,368.64,368.64,368.64,368.64,368.64,368.64,368.64,368.64,368.64,368.64,368.64,368.64,368.64,368.64,364.66,359.36,358.03,358.69,358.69,358.03,358.69,358.03,358.03,358.03,358.69,358.03,358.03,344.78,335.50,320.92,318.93,318.27,318.93,318.27,317.60,318.27,317.60,318.27,318.27,318.27,317.60,318.27,318.27,318.27,317.60,317.60,317.60,317.60,317.60,317.60,317.60,317.60,317.60,317.60,317.60,317.60,317.60,317.60,317.60,317.60,317.60,317.60,317.60,317.60,317.60,317.60,317.60,317.60,317.60,317.60,317.60,317.60,317.60,317.60,317.60,317.60,317.60,317.60,317.60,317.60,317.60,317.60,317.60,317.60,317.60,317.60,317.60,317.60,317.60,317.60,317.60,317.60,317.60,317.60,317.60,317.60,317.60,318.27,318.27,318.27,318.93,318.93,321.58,321.58,322.91,323.57,323.57,324.89,325.56,325.56,325.56,330.86,334.17,334.17,338.81,343.45,346.76,351.40,351.40,357.37,365.32,397.80,397.80,430.93,450.82,446.18,446.18,422.98,401.11,388.52,388.52,368.64,356.71,356.71,356.71,350.74,350.74,350.74,350.74,344.78,344.78,344.78,350.74,350.74,350.74,350.74,356.71,356.71,356.71,365.98,375.93,383.22,389.18,399.12,401.11,450.82,450.82,425.63,425.63,365.32,365.32,370.62,360.02,338.81,338.81,334.17,330.86,330.86,330.86,330.86,330.86,330.86,330.86,330.86,330.86,330.86,330.86,330.86,330.86,330.86,330.86,330.86,330.86,330.86,330.86,330.86,330.86,330.86,330.86,334.17,334.17,334.17,334.17,334.17,334.17,334.17,334.17,334.17,334.17,330.86,330.86,330.86,330.86,330.86,330.86,330.86,334.17,334.17,334.17,334.17,334.17,334.17,334.17,334.17,334.17,334.17,334.17,334.17,334.17,330.86,330.86,334.17,330.86,330.86,330.86,330.86,330.86,330.86,330.86,330.86,330.86,330.86,330.86,330.86,330.86,330.86,330.86,330.86,334.17,334.17,334.17,334.17,334.17,334.17,340.14,346.76,357.37,425.63,425.63,425.63,450.82,401.11,368.64,377.91,377.91,368.64,368.64,368.64,368.64,368.64,368.64,368.64,368.64,368.64,368.64,368.64,368.64,368.64,368.64,356.71,356.71,356.71,356.71,356.71,356.71,356.71,356.71,356.71,356.71,356.71,356.71,356.71,356.71,356.71,356.71,356.71,356.71,356.71,356.71,356.71,356.71,356.71,356.71,356.71,356.71,368.64,368.64,368.64,368.64,368.64,368.64,368.64,368.64,368.64,368.64,368.64,368.64,368.64,356.71,356.71,356.71,356.71,356.71,356.71,356.71,356.71,356.71,356.71,356.71,356.71,356.71,356.71,356.71,356.71,356.71,356.71,356.71,356.71,356.71,356.71,356.71,356.71,356.71,356.71,356.71,356.71,356.71,356.71,356.71,356.71,356.71,356.71,356.71,356.71,356.71,356.71,356.71,356.71,356.71,356.71,356.71,368.64,368.64,368.64,368.64,368.64,356.71,356.71,356.71,356.71,356.71,356.71,356.71,356.71,356.71,356.71,356.71,356.71,368.64,368.64,368.64,368.64,368.64
332.18,332.18,332.18,332.18,332.18,332.18,332.18,332.85,332.18,332.85,332.18,332.18,332.18,332.18,332.18,332.18,332.85,334.17,336.82,339.47,340.80,340.80,340.80,340.14,340.80,340.14,340.80,340.80,340.80,340.80,340.80,340.80,340.14,342.13,342.13,342.13,342.13,342.13,342.13,344.78,344.78,344.78,344.78,344.78,344.78,350.74,350.74,350.74,350.74,356.71,356.71,356.71,356.71,368.64,368.64,368.64,368.64,368.64,368.64,368.64,368.64,368.64,368.64,368.64,368.64,368.64,368.64,365.32,363.33,360.02,359.36,360.02,359.36,359.36,359.36,359.36,358.69,358.69,358.03,358.03,346.10,333.51,320.92,318.27,318.27,318.27,318.27,318.27,317.60,318.27,317.60,317.60,318.27,317.60,317.60,317.60,317.60,317.60,317.60,317.60,317.60,317.60,317.60,317.60,317.60,317.60,317.60,317.60,317.60,317.60,317.60,317.60,317.60,317.60,317.60,317.60,317.60,317.60,317.60,317.60,317.60,317.60,317.60,317.60,317.60,317.60,317.60,317.60,317.60,317.60,317.60,317.60,317.60,317.60,317.60,317.60,317.60,317.60,317.60,317.60,317.60,317.60,317.60,317.60,317.60,317.60,317.60,317.60,317.60,317.60,318.27,318.27,318.27,318.93,320.25,322.24,322.24,323.57,324.23,324.23,324.89,325.56,326.22,326.22,330.86,334.17,334.17,338.81,343.45,346.76,351.40,351.40,357.37,365.32,397.80,397.80,430.93,450.82,446.18,446.18,422.98,401.11,388.52,388.52,368.64,356.71,356.71,356.71,350.74,350.74,344.78,344.78,344.78,344.78,344.78,344.78,344.78,350.74,350.74,350.74,358.69,360.68,367.97,376.59,382.55,394.48,402.44,401.11,446.18,446.18,425.63,425.63,365.32,365.32,362.67,356.04,338.81,338.81,334.17,330.86,330.86,330.86,330.86,330.86,330.86,330.86,330.86,330.86,330.86,330.86,330.86,330.86,330.86,330.86,330.86,330.86,330.86,330.86,330.86,330.86,330.86,330.86,334.17,334.17,334.17,334.17,334.17,334.17,334.17,334.17,334.17,334.17,330.86,330.86,330.86,330.86,330.86,330.86,330.86,334.17,334.17,334.17,334.17,334.17,334.17,334.17,334.17,334.17,334.17,334.17,334.17,334.17,334.17,334.17,334.17,334.17,334.17,330.86,330.86,330.86,330.86,330.86,330.86,330.86,330.86,330.86,330.86,330.86,330.86,330.86,330.86,334.17,334.17,334.17,334.17,334.17,334.17,340.14,346.76,357.37,425.63,425.63,425.63,450.82,401.11,368.64,377.91,377.91,368.64,368.64,368.64,368.64,368.64,368.64,368.64,368.64,368.64,368.64,368.64,368.64,368.64,368.64,356.71,356.71,356.71,356.71,356.71,356.71,356.71,356.71,356.71,356.71,356.71,356.71,356.71,356.71,356.71,356.71,356.71,356.71,356.71,356.71,356.71,356.71,356.71,356.71,356.71,356.71,356.71,356.71,356.71,356.71,356.71,368.64,368.64,368.64,356.71,356.71,356.71,356.71,356.71,356.71,356.71,356.71,356.71,356.71,356.71,356.71,356.71,356.71,356.71,356.71,356.71,356.71,356.71,356.71,356.71,356.71,356.71,356.71,356.71,356.71,356.71,356.71,356.71,356.71,356.71,356.71,356.71,356.71,356.71,356.71,356.71,356.71,356.71,356.71,356.71,356.71,356.71,356.71,356.71,356.71,356.71,356.71,368.64,368.64,368.64,368.64,368.64,368.64,368.64,356.71,356.71,356.71,356.71,356.71,356.71,356.71,356.71,356.71,356.71,356.71,368.64,368.64,368.64,368.64
332.18,332.18,332.18,332.18,332.18,332.18,332.18,332.18,332.85,332.18,332.18,332.85,332.85,332.18,332.85,332.18,332.85,334.84,337.49,339.47,341.46,340.80,341.46,340.80,340.80,340.80,340.80,340.80,340.80,340.80,340.80,340.80,340.80,342.13,342.13,342.13,342.13,342.13,342.13,344.78,344.78,344.78,344.78,344.78,344.78,344.78,344.78,348.75,351.40,354.72,357.37,358.03,362.67,368.64,368.64,368.64,368.64,368.64,368.64,368.64,368.64,368.64,368.64,368.64,368.64,367.97,367.31,366.65,365.32,362.01,360.68,360.68,360.02,359.36,359.36,359.36,359.36,359.36,359.36,355.38,340.14,332.85,323.57,317.60,318.27,317.60,318.27,318.27,317.60,318.27,317.60,318.27,317.60,318.27,318.27,317.60,317.60,317.60,317.60,317.60,317.60,317.60,317.60,317.60,317.60,317.60,317.60,317.60,317.60,317.60,317.60,317.60,317.60,317.60,317.60,318.27,317.60,317.60,317.60,317.60,317.60,317.60,317.60,317.60,317.60,317.60,317.60,317.60,317.60,317.60,317.60,317.60,317.60,317.60,317.60,317.60,317.60,317.60,317.60,317.60,317.60,317.60,317.60,317.60,317.60,317.60,317.60,317.60,317.60,317.60,317.60,318.27,318.27,320.92,320.92,322.24,322.24,323.57,324.23,324.23,324.89,325.56,326.22,326.22,330.86,334.17,334.17,338.81,343.45,346.76,351.40,351.40,357.37,365.32,397.80,397.80,430.93,438.22,446.18,446.18,422.98,401.11,388.52,388.52,368.64,356.71,356.71,356.71,350.74,350.74,344.78,344.78,344.78,344.78,344.78,344.78,344.78,350.74,350.74,356.71,356.71,368.64,368.64,375.93,383.22,401.11,401.11,401.11,446.18,446.18,425.63,425.63,365.32,365.32,360.68,344.78,338.81,338.81,334.17,330.86,330.86,330.86,330.86,330.86,330.86,330.86,330.86,330.86,330.86,330.86,330.86,330.86,330.86,330.86,330.86,330.86,330.86,330.86,330.86,330.86,330.86,330.86,334.17,334.17,334.17,334.17,334.17,334.17,334.17,330.86,330.86,330.86,330.86,330.86,330.86,330.86,330.86,330.86,330.86,334.17,334.17,334.17,334.17,334.17,334.17,334.17,334.17,334.17,334.17,334.17,334.17,334.17,334.17,334.17,334.17,334.17,334.17,330.86,330.86,330.86,330.86,330.86,330.86,330.86,330.86,330.86,330.86,330.86,330.86,330.86,330.86,334.17,334.17,334.17,334.17,334.17,334.17,340.14,346.76,354.05,397.80,397.80,397.80,438.22,422.98,388.52,388.52,388.52,377.91,377.91,377.91,377.91,377.91,377.91,377.91,377.91,377.91,377.91,368.64,368.64,368.64,368.64,368.64,368.64,368.64,356.71,356.71,356.71,356.71,356.71,356.71,368.64,368.64,368.64,368.64,368.64,368.64,368.64,368.64,368.64,356.71,356.71,368.64,368.64,368.64,368.64,356.71,356.71,356.71,356.71,356.71,356.71,356.71,368.64,368.64,368.64,356.71,356.71,356.71,356.71,356.71,356.71,356.71,356.71,356.71,356.71,356.71,356.71,356.71,356.71,356.71,356.71,356.71,356.71,356.71,356.71,356.71,356.71,356.71,356.71,356.71,356.71,356.71,356.71,356.71,356.71,356.71,356.71,356.71,356.71,356.71,356.71,356.71,356.71,356.71,356.71,356.71,356.71,356.71,356.71,356.71,356.71,356.71,356.71,368.64,368.64,368.64,368.64,368.64,368.64,368.64,356.71,356.71,356.71,356.71,356.71,356.71,356.71,356.71,356.71,356.71,356.71,356.71,356.71,368.64,368.64
332.18,332.18,332.18,332.18,332.18,332.85,332.18,332.85,332.18,332.85,332.18,332.85,332.18,332.85,332.18,332.85,332.85,334.84,338.15,340.80,340.80,340.80,340.80,340.80,340.80,340.80,340.80,340.80,340.80,340.80,340.80,341.46,341.46,341.46,341.46,341.46,342.13,342.13,342.79,344.11,344.78,344.78,345.44,345.44,346.10,346.76,348.09,349.42,350.74,354.72,357.37,359.36,364.66,364.66,367.97,368.64,368.64,367.97,368.64,368.64,368.64,368.64,368.64,368.64,368.64,368.64,367.31,366.65,365.98,363.33,362.01,361.35,361.35,360.02,360.02,360.02,360.02,359.36,355.38,343.45,334.17,324.89,318.27,317.60,317.60,317.60,318.27,317.60,318.27,317.60,318.27,317.60,318.27,317.60,317.60,318.27,317.60,318.27,318.27,317.60,317.60,317.60,317.60,317.60,317.60,317.60,317.60,317.60,317.60,317.60,317.60,317.60,317.60,317.60,317.60,317.60,317.60,317.60,317.60,317.60,317.60,317.60,317.60,317.60,317.60,317.60,317.60,317.60,317.60,317.60,317.60,317.60,317.60,317.60,317.60,317.60,317.60,317.60,317.60,317.60,317.60,317.60,317.60,317.60,317.60,317.60,317.60,317.60,317.60,317.60,317.60,317.60,318.27,320.92,320.92,323.57,323.57,324.89,325.56,325.56,325.56,326.22,330.86,330.86,334.17,337.49,338.81,338.81,343.45,349.42,351.40,351.40,357.37,365.32,377.91,377.91,425.63,438.22,450.82,450.82,422.98,401.11,388.52,388.52,377.91,368.64,356.71,356.71,350.74,350.74,344.78,344.78,344.78,344.78,344.78,344.78,344.78,350.74,350.74,356.71,356.71,368.64,377.91,377.91,377.91,401.11,401.11,401.11,446.18,446.18,446.18,432.26,393.82,367.31,362.01,344.78,338.81,338.81,334.17,330.86,330.86,330.86,330.86,330.86,330.86,330.86,330.86,330.86,330.86,330.86,330.86,330.86,330.86,330.86,330.86,330.86,330.86,330.86,330.86,330.86,330.86,330.86,330.86,330.86,334.17,334.17,334.17,334.17,334.17,330.86,330.86,330.86,330.86,330.86,330.86,330.86,330.86,330.86,330.86,334.17,334.17,334.17,334.17,334.17,334.17,334.17,334.17,334.17,334.17,334.17,334.17,334.17,334.17,334.17,334.17,334.17,334.17,334.17,334.17,330.86,330.86,330.86,330.86,330.86,330.86,330.86,330.86,330.86,330.86,330.86,334.17,334.17,334.17,334.17,334.17,334.17,334.17,340.14,344.78,351.40,397.80,369.96,369.96,425.63,450.82,422.98,422.98,422.98,401.11,401.11,401.11,401.11,401.11,401.11,388.52,388.52,388.52,388.52,388.52,377.91,377.91,377.91,377.91,368.64,368.64,368.64,368.64,368.64,368.64,368.64,368.64,377.91,377.91,377.91,377.91,377.91,377.91,377.91,377.91,377.91,377.91,377.91,368.64,368.64,368.64,368.64,368.64,368.64,368.64,356.71,356.71,356.71,356.71,356.71,356.71,356.71,356.71,356.71,356.71,356.71,356.71,356.71,356.71,356.71,356.71,356.71,368.64,368.64,368.64,368.64,368.64,368.64,368.64,368.64,356.71,356.71,356.71,356.71,356.71,356.71,356.71,356.71,356.71,356.71,356.71,356.71,356.71,356.71,356.71,356.71,356.71,356.71,356.71,356.71,356.71,356.71,356.71,356.71,356.71,356.71,356.71,368.64,368.64,368.64,368.64,368.64,368.64,368.64,368.64,368.64,368.64,368.64,356.71,356.71,356.71,356.71,356.71,356.71,356.71,356.71,356.71,356.71,356.71,356.71,368.64,368.64
332.18,332.18,332.18,332.18,332.18,332.18,332.85,332.18,332.18,332.85,332.18,332.85,332.18,332.85,332.85,332.85,332.85,336.82,338.81,340.80,341.46,340.80,341.46,340.80,341.46,340.80,341.46,340.80,340.80,340.80,341.46,341.46,341.46,341.46,342.13,342.13,342.13,342.79,342.79,344.11,344.78,344.78,345.44,345.44,346.76,346.76,348.09,348.09,350.08,354.05,357.37,361.35,364.66,364.66,367.31,368.64,368.64,368.64,367.97,367.97,369.30,368.64,367.97,368.64,368.64,367.97,367.97,366.65,365.98,364.66,363.33,362.67,361.35,361.35,360.68,360.68,360.68,356.04,344.11,336.82,325.56,316.94,316.94,317.60,316.94,317.60,316.94,317.60,317.60,317.60,317.60,317.60,317.60,318.27,318.27,317.60,317.60,317.60,317.60,317.60,317.60,317.60,317.60,317.60,317.60,317.60,317.60,317.60,317.60,317.60,317.60,317.60,317.60,317.60,317.60,317.60,317.60,317.60,317.60,317.60,317.60,317.60,317.60,317.60,317.60,317.60,317.60,317.60,317.60,317.60,317.60,317.60,317.60,317.60,317.60,317.60,317.60,317.60,317.60,317.60,317.60,317.60,317.60,317.60,317.60,317.60,317.60,317.60,317.60,317.60,317.60,317.60,320.92,323.57,323.57,323.57,324.89,325.56,326.22,326.22,326.22,330.86,334.17,334.17,337.49,338.81,340.14,340.14,344.78,349.42,351.40,351.40,357.37,365.32,377.91,377.91,425.63,438.22,450.82,450.82,422.98,401.11,388.52,388.52,377.91,368.64,356.71,356.71,350.74,350.74,344.78,344.78,344.78,344.78,344.78,344.78,344.78,350.74,350.74,356.71,356.71,368.64,377.91,377.91,377.91,388.52,388.52,401.11,446.18,446.18,446.18,428.28,408.40,385.20,358.69,344.78,338.81,338.81,334.17,330.86,330.86,330.86,330.86,330.86,330.86,330.86,330.86,330.86,330.86,330.86,330.86,330.86,330.86,330.86,330.86,330.86,330.86,330.86,330.86,330.86,330.86,330.86,330.86,330.86,334.17,334.17,334.17,334.17,334.17,330.86,330.86,330.86,330.86,330.86,330.86,330.86,330.86,330.86,330.86,334.17,334.17,334.17,334.17,334.17,334.17,334.17,334.17,334.17,334.17,334.17,334.17,334.17,334.17,334.17,334.17,334.17,334.17,334.17,334.17,330.86,330.86,330.86,330.86,330.86,330.86,330.86,330.86,330.86,330.86,330.86,334.17,334.17,334.17,334.17,334.17,334.17,334.17,338.81,344.78,349.42,371.95,365.32,365.32,377.91,430.93,430.93,450.82,450.82,446.18,446.18,446.18,422.98,422.98,422.98,422.98,422.98,422.98,422.98,422.98,401.11,401.11,401.11,388.52,388.52,388.52,388.52,388.52,388.52,388.52,388.52,388.52,388.52,388.52,388.52,388.52,388.52,388.52,388.52,388.52,388.52,388.52,388.52,388.52,377.91,377.91,377.91,377.91,368.64,368.64,368.64,356.71,356.71,356.71,356.71,356.71,356.71,356.71,356.71,356.71,356.71,356.71,356.71,356.71,368.64,368.64,368.64,368.64,368.64,368.64,368.64,368.64,368.64,368.64,368.64,368.64,368.64,356.71,356.71,356.71,356.71,356.71,356.71,356.71,356.71,356.71,356.71,356.71,356.71,356.71,356.71,356.71,356.71,356.71,356.71,356.71,356.71,356.71,356.71,356.71,356.71,356.71,368.64,368.64,368.64,368.64,368.64,368.64,368.64,368.64,368.64,368.64,368.64,356.71,356.71,356.71,356.71,356.71,356.71,356.71,356.71,356.71,356.71,356.71,356.71,368.64,368.64
332.18,332.18,332.18,332.85,332.18,332.85,332.18,332.18,332.85,332.18,332.85,332.85,332.18,332.85,332.18,332.85,333.51,336.16,338.81,341.46,340.80,341.46,340.80,341.46,340.80,340.80,340.80,340.80,340.80,341.46,341.46,341.46,341.46,342.13,341.46,342.13,342.13,342.79,343.45,344.11,344.78,346.10,345.44,346.10,346.10,346.76,348.75,348.09,350.74,354.05,358.03,362.01,364.66,364.66,367.31,367.97,367.97,369.30,368.64,369.30,368.64,368.64,368.64,368.64,368.64,368.64,367.97,367.31,366.65,365.32,364.66,363.33,362.67,362.01,361.35,361.35,356.71,343.45,336.82,324.89,317.60,316.94,316.94,316.94,316.94,316.94,316.94,316.94,316.94,317.60,317.60,317.60,317.60,317.60,317.60,317.60,317.60,317.60,317.60,317.60,316.94,316.94,317.60,316.94,316.94,316.94,316.94,316.94,316.94,316.94,317.60,316.94,316.94,316.94,316.94,316.94,317.60,317.60,317.60,317.60,317.60,317.60,317.60,317.60,317.60,317.60,317.60,317.60,317.60,317.60,317.60,317.60,317.60,317.60,317.60,317.60,317.60,317.60,317.60,317.60,317.60,317.60,317.60,317.60,317.60,317.60,317.60,317.60,317.60,317.60,317.60,317.60,323.57,323.57,323.57,323.57,324.89,325.56,326.22,326.22,326.22,330.86,334.17,334.17,337.49,338.81,340.14,340.14,344.78,349.42,351.40,351.40,357.37,365.32,377.91,377.91,425.63,438.22,450.82,450.82,422.98,401.11,388.52,388.52,377.91,368.64,356.71,356.71,350.74,350.74,344.78,344.78,344.78,344.78,344.78,344.78,344.78,350.74,350.74,356.71,356.71,368.64,377.91,377.91,377.91,388.52,388.52,401.11,446.18,446.18,446.18,431.60,411.71,389.18,354.05,344.78,338.81,338.81,334.17,330.86,330.86,330.86,330.86,330.86,330.86,330.86,330.86,330.86,330.86,330.86,330.86,330.86,330.86,330.86,330.86,330.86,330.86,330.86,330.86,330.86,330.86,330.86,330.86,330.86,334.17,334.17,334.17,334.17,330.86,330.86,330.86,330.86,330.86,330.86,330.86,330.86,330.86,330.86,330.86,334.17,334.17,334.17,334.17,334.17,334.17,334.17,334.17,334.17,334.17,334.17,334.17,334.17,334.17,334.17,334.17,334.17,334.17,334.17,334.17,330.86,330.86,330.86,330.86,330.86,330.86,330.86,330.86,330.86,330.86,330.86,334.17,334.17,334.17,334.17,334.17,337.49,337.49,338.81,344.78,349.42,361.35,365.32,365.32,377.91,430.93,430.93,450.82,450.82,446.18,446.18,446.18,422.98,422.98,422.98,422.98,422.98,422.98,422.98,422.98,401.11,401.11,401.11,388.52,388.52,388.52,388.52,388.52,388.52,388.52,388.52,388.52,388.52,388.52,388.52,388.52,388.52,388.52,388.52,388.52,388.52,388.52,388.52,388.52,377.91,377.91,377.91,377.91,368.64,368.64,368.64,356.71,356.71,356.71,356.71,356.71,356.71,356.71,356.71,356.71,356.71,356.71,356.71,356.71,368.64,368.64,368.64,368.64,368.64,368.64,368.64,368.64,368.64,368.64,368.64,368.64,368.64,356.71,356.71,356.71,356.71,356.71,356.71,356.71,356.71,356.71,356.71,356.71,356.71,356.71,356.71,356.71,356.71,356.71,356.71,356.71,356.71,356.71,356.71,356.71,356.71,356.71,368.64,368.64,368.64,368.64,368.64,368.64,368.64,368.64,368.64,368.64,368.64,356.71,356.71,356.71,356.71,356.71,356.71,356.71,356.71,356.71,356.71,356.71,356.71,356.71,356.71
