281.53,281.53,281.53,281.53,281.53,281.53,281.53,281.53,281.53,281.53,281.53,281.53,281.53,281.53,281.53,281.53,281.53,281.53,280.16,281.53,281.53,281.53,281.53,281.53,281.53,281.53,281.53,281.53,281.53,281.53,281.53,281.53,281.53,281.53,281.53,281.53,281.53,281.53,281.53,281.53,281.53,281.53,281.53,281.53,281.53,281.53,281.53,281.53,281.53,281.53,281.53,281.53,281.53,281.53,281.53,281.53,281.53,281.53,281.53,281.53,281.53,281.53,281.53,281.53,281.53,281.53,281.53,281.53,281.53,281.53,281.53,281.53,281.53,281.53,281.53,281.53,281.53,282.90,282.90,282.90,282.90,282.90,282.90,282.90,282.90,282.90,284.27,284.27,284.27,284.27,284.27,284.27,284.27,284.27,284.27,284.27,285.64,285.64,285.64,285.64,285.64,287.00,287.00,287.00,287.00,287.00,288.37,288.37,288.37,288.37,288.37,288.37,288.37,289.74,289.74,289.74,289.74,289.74,289.74,289.74,289.74,289.74,289.74,289.74,291.11,291.11,291.11,291.11,291.11,292.48,292.48,293.85,293.85,293.85,293.85,293.85,293.85,293.85,293.85,295.22,296.58,296.58,296.58,296.58,296.58,296.58,296.58,296.58,297.95,297.95,297.95,299.32,300.69,300.69,300.69,300.69,300.69,300.69,307.53,307.53,307.53,307.53,310.27,310.27,310.27,313.01,319.85,319.85,319.85,319.85,323.96,329.43,329.43,329.43,333.54,333.54,333.54,333.54,339.01,339.01,339.01,343.12,345.85,348.59,348.59,348.59,352.70,355.44,355.44,355.44,358.17,358.17,358.17,362.28,365.02,365.02,365.02,367.75,371.86,371.86,374.60,374.60,374.60,374.60,377.33,377.33,377.33,377.33,384.18,384.18,384.18,384.18,384.18,391.02,391.02,391.02,391.02,393.76,393.76,400.60,400.60,400.60,400.60,403.34,407.44,407.44,407.44,410.18,412.92,417.02,417.02,417.02,417.02,417.02,419.76,422.50,422.50,422.50,422.50,422.50,426.60,426.60,432.08,432.08,432.08,432.08,436.18,441.66,441.66,441.66,441.66,448.50,448.50,448.50,451.24,451.24,451.24,458.08,458.08,464.93,464.93,464.93,467.66,474.51,474.51,474.51,477.24,484.09,484.09,486.82,490.93,503.25,503.25,510.09,515.56,516.93,516.93,521.04,522.41,523.78,523.78,527.88,530.62,530.62,529.25,527.88,527.88,527.88,527.88,527.88,527.88,523.78,523.78,522.41,521.04,521.04,521.04,516.93,515.56,515.56,515.56,510.09,510.09,510.09,507.35,507.35,503.25,503.25,503.25,503.25,503.25,503.25,503.25,503.25,503.25,503.25,503.25,507.35,507.35,507.35,510.09,515.56,515.56,515.56,515.56,515.56,515.56,516.93,516.93,516.93,516.93,515.56,515.56,515.56,515.56,515.56,515.56,515.56,515.56,515.56,515.56,515.56,515.56,515.56,515.56,515.56,515.56,510.09,510.09,510.09,510.09,507.35,507.35,507.35,503.25,503.25,503.25,503.25,503.25,503.25,507.35,507.35,510.09,510.09,515.56,515.56,515.56,516.93,516.93,521.04,521.04,521.04,521.04,521.04,521.04,521.04,521.04,521.04,522.41,522.41,522.41,522.41,523.78,523.78,523.78,523.78,523.78,523.78,527.88,527.88,527.88,527.88,527.88,527.88,527.88,527.88,527.88,527.88,527.88,527.88,529.25,529.25,529.25,529.25,529.25,529.25,529.25,529.25,529.25,529.25,529.25,529.25,529.25,529.25,529.25,529.25,529.25,529.25,529.25,529.25,529.25,529.25,529.25,529.25,527.88,527.88
281.53,281.53,281.53,281.53,281.53,281.53,281.53,281.53,281.53,281.53,281.53,281.53,281.53,281.53,281.53,281.53,281.53,281.53,281.53,281.53,281.53,281.53,281.53,281.53,281.53,281.53,281.53,281.53,281.53,281.53,281.53,281.53,281.53,281.53,281.53,281.53,281.53,281.53,281.53,281.53,281.53,281.53,281.53,281.53,281.53,281.53,281.53,281.53,281.53,281.53,281.53,281.53,281.53,281.53,281.53,281.53,281.53,281.53,281.53,281.53,281.53,281.53,281.53,281.53,281.53,281.53,281.53,281.53,281.53,281.53,281.53,281.53,281.53,281.53,281.53,281.53,281.53,281.53,282.90,282.90,282.90,282.90,282.90,282.90,282.90,282.90,284.27,284.27,284.27,284.27,284.27,284.27,284.27,284.27,284.27,284.27,284.27,285.64,285.64,285.64,285.64,287.00,287.00,287.00,287.00,287.00,288.37,288.37,288.37,288.37,288.37,288.37,288.37,289.74,289.74,289.74,289.74,289.74,289.74,289.74,289.74,289.74,289.74,289.74,291.11,291.11,291.11,291.11,291.11,292.48,292.48,292.48,293.85,293.85,293.85,293.85,293.85,293.85,293.85,295.22,295.22,295.22,296.58,296.58,296.58,296.58,296.58,296.58,297.95,297.95,297.95,299.32,300.69,300.69,300.69,300.69,300.69,300.69,307.53,307.53,307.53,307.53,310.27,313.01,319.85,319.85,319.85,319.85,319.85,319.85,323.96,329.43,329.43,329.43,333.54,333.54,333.54,333.54,339.01,339.01,339.01,343.12,348.59,348.59,348.59,348.59,352.70,355.44,355.44,355.44,358.17,358.17,358.17,362.28,365.02,365.02,365.02,367.75,371.86,371.86,374.60,374.60,377.33,377.33,377.33,377.33,377.33,377.33,384.18,384.18,384.18,384.18,384.18,391.02,391.02,391.02,391.02,393.76,393.76,400.60,400.60,400.60,400.60,403.34,407.44,407.44,407.44,407.44,410.18,412.92,412.92,417.02,417.02,417.02,419.76,422.50,422.50,422.50,422.50,422.50,426.60,426.60,432.08,432.08,432.08,432.08,436.18,441.66,441.66,441.66,441.66,441.66,441.66,448.50,451.24,451.24,451.24,458.08,458.08,464.93,464.93,464.93,467.66,474.51,474.51,474.51,477.24,484.09,484.09,486.82,490.93,503.25,503.25,510.09,515.56,521.04,521.04,522.41,527.88,527.88,527.88,529.25,530.62,530.62,530.62,529.25,529.25,527.88,527.88,527.88,527.88,523.78,523.78,522.41,521.04,521.04,521.04,516.93,516.93,515.56,515.56,510.09,510.09,510.09,507.35,507.35,503.25,503.25,503.25,503.25,503.25,503.25,503.25,503.25,503.25,503.25,503.25,507.35,510.09,510.09,510.09,515.56,515.56,515.56,515.56,515.56,515.56,516.93,516.93,516.93,516.93,516.93,516.93,516.93,515.56,515.56,515.56,515.56,515.56,515.56,515.56,515.56,515.56,515.56,515.56,515.56,515.56,510.09,510.09,510.09,507.35,507.35,507.35,503.25,503.25,503.25,503.25,503.25,503.25,503.25,507.35,507.35,510.09,510.09,515.56,515.56,515.56,515.56,516.93,521.04,521.04,521.04,521.04,521.04,521.04,521.04,521.04,521.04,521.04,522.41,522.41,522.41,522.41,523.78,523.78,523.78,523.78,523.78,527.88,527.88,527.88,527.88,527.88,527.88,527.88,527.88,527.88,527.88,527.88,527.88,529.25,529.25,529.25,529.25,529.25,529.25,529.25,529.25,529.25,529.25,529.25,529.25,529.25,529.25,529.25,529.25,529.25,529.25,529.25,529.25,529.25,529.25,529.25,529.25,527.88,527.88
281.53,281.53,281.53,281.53,281.53,281.53,281.53,281.53,281.53,281.53,281.53,281.53,281.53,281.53,281.53,281.53,281.53,280.16,281.53,281.53,281.53,281.53,281.53,281.53,281.53,281.53,281.53,281.53,281.53,281.53,281.53,281.53,281.53,281.53,281.53,281.53,281.53,281.53,281.53,281.53,281.53,281.53,281.53,281.53,281.53,281.53,281.53,281.53,281.53,281.53,281.53,281.53,281.53,281.53,281.53,281.53,281.53,281.53,281.53,281.53,281.53,281.53,281.53,281.53,281.53,281.53,281.53,281.53,281.53,281.53,281.53,281.53,281.53,281.53,281.53,281.53,281.53,281.53,282.90,282.90,282.90,282.90,282.90,282.90,282.90,282.90,284.27,284.27,284.27,284.27,284.27,284.27,284.27,284.27,284.27,284.27,284.27,285.64,285.64,285.64,285.64,287.00,287.00,287.00,287.00,288.37,288.37,288.37,288.37,288.37,288.37,288.37,288.37,289.74,289.74,289.74,289.74,289.74,289.74,289.74,289.74,289.74,289.74,289.74,291.11,291.11,291.11,291.11,291.11,292.48,292.48,292.48,293.85,293.85,293.85,293.85,293.85,293.85,293.85,293.85,295.22,295.22,296.58,296.58,296.58,296.58,296.58,296.58,297.95,297.95,297.95,299.32,300.69,300.69,300.69,300.69,300.69,300.69,307.53,307.53,307.53,307.53,310.27,313.01,319.85,319.85,319.85,319.85,319.85,319.85,323.96,329.43,329.43,329.43,333.54,333.54,333.54,333.54,339.01,339.01,339.01,343.12,348.59,348.59,348.59,348.59,352.70,355.44,355.44,355.44,358.17,358.17,358.17,362.28,365.02,365.02,365.02,367.75,371.86,371.86,374.60,374.60,377.33,377.33,377.33,377.33,377.33,377.33,384.18,384.18,384.18,384.18,384.18,391.02,391.02,391.02,391.02,393.76,393.76,400.60,400.60,400.60,400.60,403.34,407.44,407.44,407.44,407.44,410.18,410.18,412.92,417.02,417.02,417.02,419.76,419.76,422.50,422.50,422.50,422.50,426.60,426.60,432.08,432.08,432.08,432.08,432.08,436.18,436.18,441.66,441.66,441.66,441.66,448.50,451.24,451.24,451.24,458.08,458.08,464.93,464.93,464.93,467.66,474.51,474.51,474.51,477.24,484.09,484.09,486.82,490.93,503.25,503.25,510.09,515.56,521.04,521.04,522.41,527.88,527.88,527.88,529.25,530.62,530.62,530.62,529.25,529.25,527.88,527.88,527.88,527.88,523.78,523.78,522.41,521.04,521.04,521.04,516.93,516.93,515.56,515.56,510.09,510.09,510.09,507.35,507.35,503.25,503.25,503.25,503.25,503.25,503.25,503.25,503.25,503.25,507.35,507.35,507.35,510.09,510.09,510.09,515.56,515.56,515.56,515.56,516.93,516.93,516.93,516.93,516.93,516.93,516.93,516.93,516.93,516.93,516.93,515.56,515.56,515.56,515.56,515.56,515.56,515.56,515.56,515.56,515.56,515.56,510.09,510.09,510.09,507.35,507.35,507.35,503.25,503.25,503.25,503.25,503.25,503.25,503.25,503.25,507.35,510.09,510.09,510.09,515.56,515.56,515.56,515.56,516.93,516.93,516.93,521.04,521.04,521.04,521.04,521.04,521.04,521.04,522.41,522.41,522.41,522.41,523.78,523.78,523.78,527.88,527.88,527.88,527.88,527.88,527.88,527.88,527.88,527.88,527.88,527.88,527.88,527.88,527.88,529.25,529.25,529.25,529.25,529.25,529.25,529.25,529.25,529.25,529.25,529.25,529.25,529.25,529.25,529.25,529.25,529.25,529.25,527.88,527.88,527.88,527.88,527.88,527.88,527.88,527.88
281.53,281.53,281.53,281.53,281.53,281.53,281.53,281.53,281.53,281.53,281.53,281.53,281.53,281.53,281.53,281.53,281.53,281.53,281.53,281.53,281.53,281.53,281.53,281.53,281.53,281.53,281.53,281.53,281.53,281.53,281.53,281.53,281.53,281.53,281.53,281.53,281.53,281.53,281.53,281.53,281.53,281.53,281.53,281.53,281.53,281.53,281.53,281.53,281.53,281.53,281.53,281.53,281.53,281.53,281.53,281.53,281.53,281.53,281.53,281.53,281.53,281.53,281.53,281.53,281.53,281.53,281.53,281.53,281.53,281.53,281.53,281.53,281.53,281.53,281.53,281.53,281.53,281.53,282.90,282.90,282.90,282.90,282.90,282.90,282.90,282.90,284.27,284.27,284.27,284.27,284.27,284.27,284.27,284.27,284.27,284.27,284.27,285.64,285.64,285.64,285.64,287.00,287.00,287.00,287.00,288.37,288.37,288.37,288.37,288.37,288.37,288.37,288.37,289.74,289.74,289.74,289.74,289.74,289.74,289.74,289.74,289.74,289.74,291.11,291.11,291.11,291.11,291.11,291.11,292.48,292.48,292.48,293.85,293.85,293.85,293.85,293.85,293.85,293.85,293.85,295.22,295.22,296.58,296.58,296.58,296.58,296.58,296.58,297.95,297.95,297.95,299.32,300.69,300.69,300.69,300.69,300.69,300.69,307.53,307.53,310.27,310.27,310.27,313.01,319.85,319.85,319.85,319.85,319.85,323.96,323.96,329.43,329.43,329.43,333.54,333.54,333.54,333.54,339.01,343.12,343.12,345.85,348.59,348.59,348.59,348.59,352.70,355.44,355.44,355.44,358.17,358.17,358.17,362.28,365.02,365.02,365.02,367.75,371.86,371.86,374.60,374.60,377.33,377.33,377.33,377.33,377.33,377.33,384.18,384.18,384.18,384.18,384.18,391.02,391.02,391.02,391.02,391.02,391.02,393.76,400.60,400.60,400.60,400.60,403.34,407.44,407.44,407.44,410.18,410.18,412.92,417.02,417.02,417.02,419.76,419.76,422.50,422.50,422.50,422.50,426.60,426.60,432.08,432.08,432.08,432.08,432.08,436.18,436.18,441.66,441.66,441.66,441.66,448.50,451.24,451.24,451.24,458.08,458.08,464.93,464.93,464.93,467.66,474.51,474.51,474.51,477.24,484.09,484.09,486.82,503.25,503.25,503.25,515.56,516.93,521.04,521.04,523.78,527.88,529.25,529.25,530.62,533.36,533.36,530.62,529.25,529.25,527.88,527.88,527.88,523.78,522.41,522.41,522.41,521.04,521.04,521.04,516.93,516.93,515.56,515.56,515.56,515.56,510.09,507.35,507.35,507.35,503.25,503.25,503.25,503.25,503.25,503.25,503.25,503.25,507.35,507.35,507.35,510.09,510.09,510.09,515.56,515.56,515.56,515.56,516.93,516.93,516.93,516.93,516.93,516.93,516.93,516.93,516.93,516.93,516.93,515.56,515.56,515.56,515.56,515.56,515.56,515.56,515.56,515.56,515.56,515.56,510.09,510.09,510.09,507.35,507.35,507.35,503.25,503.25,503.25,503.25,503.25,503.25,503.25,503.25,507.35,510.09,510.09,510.09,515.56,515.56,515.56,515.56,516.93,516.93,516.93,521.04,521.04,521.04,521.04,521.04,521.04,521.04,522.41,522.41,522.41,522.41,523.78,523.78,523.78,527.88,527.88,527.88,527.88,527.88,527.88,527.88,527.88,527.88,527.88,527.88,527.88,527.88,527.88,527.88,527.88,527.88,527.88,527.88,527.88,529.25,529.25,529.25,529.25,529.25,529.25,529.25,529.25,529.25,527.88,527.88,527.88,527.88,527.88,527.88,527.88,527.88,527.88,527.88,527.88
281.53,281.53,281.53,281.53,281.53,281.53,281.53,281.53,281.53,281.53,281.53,281.53,281.53,281.53,281.53,281.53,280.16,281.53,281.53,281.53,281.53,281.53,281.53,281.53,281.53,281.53,281.53,281.53,281.53,281.53,281.53,281.53,281.53,281.53,281.53,281.53,281.53,281.53,281.53,281.53,281.53,281.53,281.53,281.53,281.53,281.53,281.53,281.53,281.53,281.53,281.53,281.53,281.53,281.53,281.53,281.53,281.53,281.53,281.53,281.53,281.53,281.53,281.53,281.53,281.53,281.53,281.53,281.53,281.53,281.53,281.53,281.53,281.53,281.53,281.53,281.53,281.53,281.53,282.90,282.90,282.90,282.90,282.90,282.90,282.90,282.90,284.27,284.27,284.27,284.27,284.27,284.27,284.27,284.27,284.27,284.27,284.27,285.64,285.64,285.64,285.64,287.00,287.00,287.00,287.00,287.00,287.00,288.37,288.37,288.37,288.37,288.37,288.37,289.74,289.74,289.74,289.74,289.74,289.74,289.74,289.74,289.74,289.74,291.11,291.11,291.11,291.11,291.11,291.11,291.11,292.48,292.48,293.85,293.85,293.85,293.85,293.85,293.85,293.85,293.85,295.22,295.22,296.58,296.58,296.58,296.58,296.58,296.58,297.95,297.95,299.32,299.32,300.69,300.69,300.69,300.69,307.53,307.53,307.53,307.53,310.27,310.27,313.01,313.01,319.85,319.85,319.85,319.85,319.85,323.96,329.43,329.43,329.43,329.43,333.54,333.54,333.54,333.54,339.01,343.12,343.12,345.85,348.59,348.59,348.59,348.59,352.70,355.44,355.44,355.44,358.17,358.17,358.17,362.28,365.02,365.02,365.02,367.75,374.60,374.60,374.60,374.60,377.33,377.33,377.33,377.33,377.33,377.33,384.18,384.18,384.18,384.18,384.18,391.02,391.02,391.02,391.02,391.02,391.02,393.76,400.60,400.60,400.60,400.60,403.34,407.44,407.44,407.44,410.18,410.18,410.18,412.92,417.02,417.02,419.76,419.76,422.50,422.50,422.50,422.50,426.60,426.60,432.08,432.08,432.08,432.08,432.08,436.18,436.18,441.66,441.66,441.66,441.66,448.50,451.24,451.24,451.24,458.08,458.08,460.82,460.82,464.93,467.66,474.51,474.51,474.51,477.24,484.09,484.09,486.82,503.25,503.25,503.25,515.56,516.93,521.04,521.04,523.78,527.88,529.25,529.25,530.62,533.36,533.36,530.62,529.25,529.25,527.88,527.88,527.88,523.78,522.41,522.41,522.41,521.04,521.04,521.04,516.93,516.93,516.93,515.56,515.56,515.56,510.09,510.09,510.09,507.35,503.25,503.25,503.25,503.25,503.25,503.25,503.25,503.25,507.35,507.35,507.35,510.09,510.09,510.09,515.56,515.56,515.56,515.56,516.93,516.93,516.93,516.93,521.04,521.04,521.04,521.04,516.93,516.93,516.93,516.93,515.56,515.56,515.56,515.56,515.56,515.56,515.56,515.56,515.56,515.56,510.09,510.09,510.09,507.35,507.35,507.35,503.25,503.25,503.25,503.25,503.25,503.25,503.25,503.25,507.35,510.09,510.09,510.09,515.56,515.56,515.56,515.56,515.56,515.56,515.56,516.93,516.93,516.93,516.93,521.04,521.04,521.04,521.04,521.04,522.41,522.41,523.78,523.78,523.78,527.88,527.88,527.88,527.88,527.88,527.88,527.88,527.88,527.88,527.88,527.88,527.88,527.88,527.88,527.88,527.88,527.88,527.88,527.88,527.88,529.25,529.25,529.25,529.25,529.25,529.25,529.25,529.25,529.25,527.88,527.88,527.88,527.88,527.88,527.88,527.88,527.88,527.88,527.88,527.88
281.53,281.53,281.53,281.53,281.53,281.53,281.53,281.53,281.53,281.53,281.53,281.53,281.53,281.53,280.16,281.53,281.53,281.53,281.53,281.53,281.53,281.53,281.53,281.53,281.53,281.53,281.53,281.53,281.53,281.53,281.53,281.53,281.53,281.53,281.53,281.53,281.53,281.53,281.53,281.53,281.53,281.53,281.53,281.53,281.53,281.53,281.53,281.53,281.53,281.53,281.53,281.53,281.53,281.53,281.53,281.53,281.53,281.53,281.53,281.53,281.53,281.53,281.53,281.53,281.53,281.53,281.53,281.53,281.53,281.53,281.53,281.53,281.53,281.53,281.53,281.53,281.53,281.53,282.90,282.90,282.90,282.90,282.90,282.90,282.90,282.90,284.27,284.27,284.27,284.27,284.27,284.27,284.27,284.27,284.27,284.27,285.64,285.64,285.64,285.64,285.64,287.00,287.00,287.00,287.00,287.00,287.00,288.37,288.37,288.37,288.37,288.37,288.37,289.74,289.74,289.74,289.74,289.74,289.74,289.74,289.74,289.74,289.74,291.11,291.11,291.11,291.11,291.11,291.11,291.11,292.48,292.48,293.85,293.85,293.85,293.85,293.85,293.85,293.85,293.85,295.22,295.22,296.58,296.58,296.58,296.58,296.58,296.58,296.58,297.95,297.95,299.32,300.69,300.69,300.69,300.69,307.53,307.53,307.53,307.53,310.27,310.27,313.01,313.01,319.85,319.85,319.85,319.85,319.85,323.96,329.43,329.43,329.43,329.43,333.54,333.54,333.54,339.01,339.01,343.12,343.12,345.85,348.59,348.59,348.59,348.59,352.70,355.44,355.44,355.44,358.17,358.17,358.17,362.28,365.02,365.02,365.02,371.86,374.60,374.60,374.60,374.60,377.33,377.33,377.33,377.33,377.33,377.33,384.18,384.18,384.18,384.18,384.18,391.02,391.02,391.02,391.02,391.02,391.02,393.76,400.60,400.60,400.60,400.60,403.34,403.34,407.44,407.44,407.44,407.44,410.18,412.92,417.02,417.02,419.76,419.76,422.50,422.50,422.50,422.50,426.60,426.60,432.08,432.08,432.08,432.08,432.08,436.18,436.18,441.66,441.66,441.66,441.66,448.50,451.24,451.24,451.24,458.08,458.08,460.82,460.82,464.93,467.66,474.51,474.51,474.51,477.24,484.09,484.09,486.82,503.25,503.25,503.25,515.56,516.93,521.04,521.04,523.78,527.88,527.88,527.88,530.62,530.62,530.62,529.25,527.88,527.88,527.88,527.88,527.88,523.78,522.41,522.41,521.04,521.04,521.04,521.04,516.93,516.93,516.93,515.56,515.56,515.56,510.09,510.09,510.09,507.35,507.35,507.35,503.25,503.25,503.25,503.25,503.25,507.35,507.35,507.35,510.09,510.09,510.09,515.56,515.56,515.56,515.56,516.93,516.93,516.93,521.04,521.04,521.04,521.04,521.04,521.04,521.04,521.04,521.04,516.93,516.93,515.56,515.56,515.56,515.56,515.56,515.56,515.56,515.56,515.56,510.09,510.09,510.09,507.35,507.35,507.35,503.25,503.25,503.25,503.25,503.25,503.25,503.25,503.25,507.35,510.09,510.09,510.09,515.56,515.56,515.56,515.56,515.56,515.56,515.56,515.56,515.56,515.56,516.93,516.93,516.93,521.04,521.04,521.04,521.04,522.41,522.41,522.41,523.78,527.88,527.88,527.88,527.88,527.88,527.88,527.88,527.88,527.88,527.88,527.88,527.88,527.88,527.88,527.88,527.88,527.88,527.88,527.88,527.88,527.88,527.88,527.88,527.88,527.88,527.88,527.88,527.88,527.88,527.88,527.88,527.88,527.88,527.88,527.88,527.88,527.88,527.88,527.88,527.88
281.53,281.53,281.53,281.53,281.53,281.53,281.53,281.53,281.53,281.53,281.53,281.53,281.53,281.53,281.53,281.53,281.53,281.53,281.53,281.53,281.53,281.53,281.53,281.53,281.53,281.53,281.53,281.53,281.53,281.53,281.53,281.53,281.53,281.53,281.53,281.53,281.53,281.53,281.53,281.53,281.53,281.53,281.53,281.53,281.53,281.53,281.53,281.53,281.53,281.53,281.53,281.53,281.53,281.53,281.53,281.53,281.53,281.53,281.53,281.53,281.53,281.53,281.53,281.53,281.53,281.53,281.53,281.53,281.53,281.53,281.53,281.53,281.53,281.53,281.53,281.53,281.53,281.53,282.90,282.90,282.90,282.90,282.90,282.90,282.90,282.90,284.27,284.27,284.27,284.27,284.27,284.27,284.27,284.27,284.27,284.27,285.64,285.64,285.64,285.64,285.64,287.00,287.00,287.00,287.00,287.00,287.00,288.37,288.37,288.37,288.37,288.37,288.37,289.74,289.74,289.74,289.74,289.74,289.74,289.74,289.74,289.74,289.74,291.11,291.11,291.11,291.11,291.11,291.11,291.11,292.48,292.48,293.85,293.85,293.85,293.85,293.85,293.85,293.85,293.85,293.85,295.22,296.58,296.58,296.58,296.58,296.58,296.58,296.58,297.95,297.95,299.32,299.32,300.69,300.69,300.69,307.53,307.53,307.53,307.53,310.27,310.27,313.01,319.85,319.85,319.85,319.85,323.96,323.96,323.96,329.43,329.43,329.43,329.43,333.54,333.54,333.54,339.01,339.01,339.01,339.01,343.12,345.85,348.59,348.59,348.59,348.59,348.59,352.70,355.44,358.17,358.17,358.17,362.28,365.02,365.02,365.02,371.86,374.60,374.60,374.60,374.60,377.33,377.33,377.33,377.33,377.33,377.33,384.18,384.18,384.18,384.18,384.18,391.02,391.02,391.02,391.02,391.02,391.02,393.76,400.60,400.60,400.60,400.60,403.34,403.34,407.44,407.44,407.44,407.44,410.18,412.92,417.02,417.02,419.76,419.76,422.50,422.50,422.50,422.50,426.60,426.60,432.08,432.08,432.08,432.08,432.08,436.18,436.18,441.66,441.66,441.66,441.66,448.50,451.24,451.24,451.24,458.08,458.08,460.82,460.82,464.93,467.66,474.51,474.51,474.51,477.24,484.09,484.09,486.82,490.93,503.25,503.25,515.56,515.56,521.04,521.04,522.41,527.88,527.88,527.88,529.25,529.25,529.25,527.88,527.88,527.88,527.88,523.78,523.78,522.41,522.41,522.41,521.04,521.04,521.04,521.04,516.93,516.93,516.93,515.56,515.56,515.56,510.09,510.09,510.09,507.35,507.35,507.35,503.25,503.25,503.25,503.25,503.25,507.35,507.35,507.35,510.09,510.09,510.09,515.56,515.56,515.56,515.56,516.93,516.93,516.93,521.04,521.04,521.04,521.04,521.04,521.04,521.04,521.04,521.04,521.04,516.93,516.93,516.93,516.93,515.56,515.56,515.56,515.56,515.56,515.56,515.56,515.56,510.09,510.09,507.35,507.35,507.35,503.25,503.25,503.25,503.25,503.25,503.25,503.25,507.35,510.09,510.09,510.09,515.56,515.56,515.56,515.56,515.56,515.56,515.56,515.56,515.56,515.56,515.56,515.56,516.93,521.04,521.04,521.04,521.04,522.41,522.41,522.41,523.78,523.78,523.78,527.88,527.88,527.88,527.88,527.88,527.88,527.88,527.88,527.88,527.88,527.88,527.88,527.88,527.88,527.88,527.88,527.88,527.88,527.88,527.88,527.88,527.88,527.88,527.88,527.88,527.88,527.88,527.88,527.88,527.88,527.88,527.88,527.88,527.88,527.88,527.88,527.88,523.78
281.53,281.53,281.53,281.53,281.53,281.53,281.53,281.53,281.53,281.53,281.53,281.53,281.53,281.53,281.53,281.53,281.53,281.53,281.53,281.53,281.53,281.53,281.53,281.53,281.53,281.53,281.53,281.53,281.53,281.53,281.53,281.53,281.53,281.53,281.53,281.53,281.53,281.53,281.53,281.53,281.53,281.53,281.53,281.53,281.53,281.53,281.53,281.53,281.53,281.53,281.53,281.53,281.53,281.53,281.53,281.53,281.53,281.53,281.53,281.53,281.53,281.53,281.53,281.53,281.53,281.53,281.53,281.53,281.53,281.53,281.53,281.53,281.53,281.53,281.53,281.53,281.53,281.53,282.90,282.90,282.90,282.90,282.90,282.90,282.90,282.90,284.27,284.27,284.27,284.27,284.27,284.27,284.27,284.27,284.27,284.27,285.64,285.64,285.64,285.64,285.64,287.00,287.00,287.00,287.00,287.00,287.00,288.37,288.37,288.37,288.37,288.37,288.37,289.74,289.74,289.74,289.74,289.74,289.74,289.74,289.74,289.74,289.74,291.11,291.11,291.11,291.11,291.11,291.11,291.11,292.48,292.48,293.85,293.85,293.85,293.85,293.85,293.85,293.85,293.85,293.85,295.22,296.58,296.58,296.58,296.58,296.58,296.58,296.58,297.95,297.95,299.32,299.32,300.69,300.69,300.69,307.53,307.53,307.53,307.53,310.27,310.27,313.01,319.85,319.85,319.85,319.85,323.96,323.96,323.96,329.43,329.43,329.43,329.43,333.54,333.54,333.54,339.01,339.01,339.01,339.01,343.12,345.85,348.59,348.59,348.59,348.59,348.59,352.70,355.44,358.17,358.17,358.17,362.28,365.02,365.02,367.75,371.86,374.60,374.60,374.60,374.60,377.33,377.33,377.33,377.33,377.33,377.33,384.18,384.18,384.18,384.18,384.18,384.18,384.18,391.02,391.02,391.02,391.02,393.76,400.60,400.60,400.60,400.60,400.60,400.60,403.34,407.44,407.44,407.44,410.18,412.92,417.02,417.02,419.76,419.76,422.50,422.50,422.50,422.50,426.60,426.60,432.08,432.08,432.08,432.08,432.08,436.18,436.18,441.66,441.66,441.66,441.66,448.50,451.24,451.24,451.24,458.08,458.08,460.82,460.82,464.93,467.66,474.51,474.51,474.51,477.24,484.09,484.09,486.82,490.93,503.25,503.25,515.56,515.56,521.04,521.04,522.41,527.88,527.88,527.88,529.25,529.25,529.25,527.88,527.88,527.88,523.78,522.41,522.41,522.41,521.04,521.04,521.04,521.04,521.04,521.04,516.93,516.93,516.93,515.56,515.56,515.56,515.56,510.09,510.09,507.35,507.35,507.35,507.35,503.25,503.25,503.25,507.35,507.35,510.09,510.09,510.09,510.09,510.09,515.56,515.56,515.56,515.56,516.93,521.04,521.04,521.04,521.04,521.04,521.04,521.04,521.04,521.04,521.04,521.04,521.04,516.93,516.93,516.93,516.93,515.56,515.56,515.56,515.56,515.56,515.56,515.56,515.56,510.09,510.09,507.35,507.35,507.35,503.25,503.25,503.25,503.25,503.25,503.25,503.25,507.35,507.35,507.35,510.09,510.09,510.09,515.56,515.56,515.56,515.56,515.56,515.56,515.56,515.56,515.56,515.56,516.93,521.04,521.04,521.04,521.04,522.41,522.41,522.41,523.78,523.78,523.78,527.88,527.88,527.88,527.88,527.88,527.88,527.88,527.88,527.88,527.88,527.88,527.88,527.88,527.88,527.88,527.88,527.88,527.88,527.88,527.88,527.88,527.88,527.88,527.88,527.88,527.88,527.88,527.88,527.88,527.88,527.88,527.88,527.88,523.78,523.78,523.78,523.78,523.78
281.53,281.53,281.53,281.53,281.53,281.53,281.53,281.53,281.53,281.53,281.53,281.53,281.53,281.53,281.53,281.53,281.53,281.53,281.53,281.53,281.53,281.53,281.53,281.53,281.53,281.53,281.53,281.53,281.53,281.53,281.53,281.53,281.53,281.53,281.53,281.53,281.53,281.53,281.53,281.53,281.53,281.53,281.53,281.53,281.53,281.53,281.53,281.53,281.53,281.53,281.53,281.53,281.53,281.53,281.53,281.53,281.53,281.53,281.53,281.53,281.53,281.53,281.53,281.53,281.53,281.53,281.53,281.53,281.53,281.53,281.53,281.53,281.53,281.53,281.53,281.53,281.53,281.53,282.90,282.90,282.90,282.90,282.90,282.90,282.90,282.90,284.27,284.27,284.27,284.27,284.27,284.27,284.27,284.27,284.27,284.27,285.64,285.64,285.64,285.64,285.64,287.00,287.00,287.00,287.00,287.00,287.00,288.37,288.37,288.37,288.37,288.37,288.37,289.74,289.74,289.74,289.74,289.74,289.74,289.74,289.74,289.74,289.74,291.11,291.11,291.11,291.11,291.11,291.11,291.11,292.48,292.48,293.85,293.85,293.85,293.85,293.85,293.85,293.85,293.85,293.85,295.22,296.58,296.58,296.58,296.58,296.58,296.58,296.58,297.95,297.95,299.32,299.32,300.69,300.69,300.69,300.69,300.69,307.53,307.53,310.27,310.27,313.01,319.85,319.85,319.85,319.85,323.96,323.96,329.43,329.43,329.43,329.43,329.43,333.54,333.54,333.54,339.01,339.01,339.01,339.01,343.12,345.85,348.59,348.59,348.59,348.59,348.59,352.70,355.44,358.17,358.17,358.17,362.28,365.02,365.02,367.75,371.86,374.60,374.60,374.60,374.60,377.33,377.33,377.33,377.33,377.33,377.33,377.33,384.18,384.18,384.18,384.18,384.18,384.18,391.02,391.02,391.02,391.02,393.76,400.60,400.60,400.60,400.60,400.60,400.60,403.34,407.44,407.44,407.44,410.18,412.92,417.02,417.02,419.76,422.50,422.50,422.50,422.50,422.50,426.60,426.60,432.08,432.08,432.08,432.08,432.08,436.18,436.18,441.66,441.66,441.66,441.66,448.50,451.24,451.24,451.24,458.08,458.08,460.82,460.82,464.93,467.66,471.77,471.77,474.51,477.24,484.09,484.09,486.82,490.93,503.25,503.25,510.09,515.56,521.04,521.04,521.04,523.78,527.88,527.88,527.88,527.88,527.88,527.88,527.88,527.88,523.78,522.41,522.41,522.41,521.04,521.04,521.04,521.04,521.04,521.04,516.93,516.93,516.93,515.56,515.56,515.56,515.56,510.09,510.09,510.09,507.35,507.35,507.35,507.35,507.35,507.35,507.35,507.35,510.09,510.09,510.09,515.56,515.56,515.56,515.56,516.93,516.93,516.93,521.04,521.04,521.04,521.04,521.04,521.04,521.04,521.04,521.04,521.04,521.04,521.04,521.04,516.93,516.93,516.93,516.93,516.93,515.56,515.56,515.56,515.56,515.56,515.56,510.09,510.09,510.09,510.09,507.35,507.35,507.35,503.25,503.25,507.35,507.35,507.35,507.35,507.35,507.35,510.09,510.09,510.09,510.09,510.09,510.09,515.56,515.56,515.56,515.56,515.56,515.56,515.56,516.93,516.93,521.04,521.04,521.04,521.04,521.04,522.41,523.78,523.78,523.78,527.88,527.88,527.88,527.88,527.88,527.88,527.88,527.88,527.88,527.88,527.88,527.88,527.88,527.88,527.88,527.88,527.88,527.88,527.88,527.88,527.88,527.88,527.88,527.88,527.88,527.88,527.88,527.88,527.88,527.88,527.88,527.88,527.88,523.78,523.78,523.78,523.78,523.78
281.53,281.53,281.53,281.53,281.53,281.53,281.53,281.53,281.53,281.53,281.53,281.53,281.53,281.53,281.53,281.53,281.53,281.53,281.53,281.53,281.53,281.53,281.53,281.53,281.53,281.53,281.53,281.53,281.53,281.53,281.53,281.53,281.53,281.53,281.53,281.53,281.53,281.53,281.53,281.53,281.53,281.53,281.53,281.53,281.53,281.53,281.53,281.53,281.53,281.53,281.53,281.53,281.53,281.53,281.53,281.53,281.53,281.53,281.53,281.53,281.53,281.53,281.53,281.53,281.53,281.53,281.53,281.53,281.53,281.53,281.53,281.53,281.53,281.53,281.53,281.53,281.53,281.53,282.90,282.90,282.90,282.90,282.90,282.90,282.90,282.90,284.27,284.27,284.27,284.27,284.27,284.27,284.27,284.27,284.27,284.27,285.64,285.64,285.64,285.64,285.64,287.00,287.00,287.00,287.00,287.00,287.00,288.37,288.37,288.37,288.37,288.37,288.37,289.74,289.74,289.74,289.74,289.74,289.74,289.74,289.74,289.74,289.74,291.11,291.11,291.11,291.11,291.11,291.11,291.11,292.48,292.48,293.85,293.85,293.85,293.85,293.85,293.85,293.85,295.22,295.22,295.22,296.58,296.58,296.58,296.58,296.58,296.58,296.58,297.95,297.95,299.32,299.32,300.69,300.69,300.69,300.69,300.69,307.53,307.53,310.27,310.27,313.01,319.85,319.85,319.85,319.85,323.96,323.96,329.43,329.43,329.43,329.43,329.43,333.54,333.54,333.54,333.54,339.01,339.01,339.01,343.12,345.85,345.85,348.59,348.59,348.59,348.59,352.70,355.44,358.17,358.17,358.17,362.28,365.02,365.02,367.75,371.86,374.60,374.60,374.60,374.60,377.33,377.33,377.33,377.33,377.33,377.33,377.33,384.18,384.18,384.18,384.18,384.18,384.18,391.02,391.02,391.02,391.02,393.76,400.60,400.60,400.60,400.60,400.60,400.60,403.34,407.44,407.44,407.44,410.18,412.92,417.02,417.02,419.76,419.76,422.50,422.50,422.50,426.60,426.60,426.60,432.08,432.08,432.08,432.08,432.08,436.18,436.18,441.66,441.66,441.66,441.66,448.50,451.24,451.24,451.24,458.08,458.08,460.82,460.82,464.93,464.93,464.93,471.77,474.51,477.24,484.09,484.09,486.82,490.93,503.25,503.25,510.09,515.56,516.93,516.93,521.04,522.41,523.78,523.78,527.88,527.88,527.88,523.78,523.78,523.78,522.41,522.41,522.41,521.04,521.04,521.04,521.04,521.04,521.04,516.93,516.93,516.93,515.56,515.56,515.56,515.56,515.56,510.09,510.09,510.09,507.35,507.35,507.35,507.35,507.35,507.35,507.35,507.35,510.09,510.09,510.09,515.56,515.56,515.56,515.56,516.93,516.93,516.93,521.04,521.04,521.04,521.04,521.04,521.04,521.04,521.04,521.04,521.04,521.04,521.04,521.04,521.04,521.04,516.93,516.93,516.93,516.93,515.56,515.56,515.56,515.56,515.56,515.56,510.09,510.09,510.09,510.09,507.35,507.35,507.35,507.35,507.35,507.35,507.35,507.35,507.35,507.35,510.09,510.09,510.09,510.09,510.09,510.09,510.09,515.56,515.56,515.56,515.56,515.56,515.56,515.56,516.93,521.04,521.04,521.04,521.04,521.04,522.41,522.41,523.78,523.78,523.78,523.78,523.78,527.88,527.88,527.88,527.88,527.88,527.88,527.88,527.88,527.88,527.88,527.88,527.88,527.88,527.88,527.88,527.88,527.88,527.88,527.88,527.88,523.78,523.78,523.78,523.78,523.78,523.78,523.78,523.78,523.78,523.78,522.41,522.41,522.41,522.41,522.41
281.53,281.53,281.53,281.53,281.53,281.53,281.53,281.53,281.53,281.53,281.53,281.53,281.53,281.53,281.53,280.16,280.16,281.53,281.53,281.53,281.53,281.53,281.53,281.53,281.53,281.53,281.53,281.53,281.53,281.53,281.53,281.53,281.53,281.53,281.53,281.53,281.53,281.53,281.53,281.53,281.53,281.53,281.53,281.53,281.53,281.53,281.53,281.53,281.53,281.53,281.53,281.53,281.53,281.53,281.53,281.53,281.53,281.53,281.53,281.53,281.53,281.53,281.53,281.53,281.53,281.53,281.53,281.53,281.53,281.53,281.53,281.53,281.53,281.53,281.53,281.53,281.53,281.53,282.90,282.90,282.90,282.90,282.90,282.90,282.90,282.90,282.90,284.27,284.27,284.27,284.27,284.27,284.27,284.27,284.27,284.27,285.64,285.64,285.64,285.64,285.64,287.00,287.00,287.00,287.00,287.00,287.00,288.37,288.37,288.37,288.37,288.37,288.37,289.74,289.74,289.74,289.74,289.74,289.74,289.74,289.74,289.74,289.74,291.11,291.11,291.11,291.11,291.11,291.11,291.11,292.48,292.48,293.85,293.85,293.85,293.85,293.85,293.85,293.85,295.22,296.58,296.58,296.58,296.58,296.58,296.58,296.58,296.58,296.58,297.95,297.95,299.32,299.32,300.69,300.69,300.69,300.69,300.69,307.53,307.53,307.53,310.27,313.01,319.85,319.85,319.85,319.85,323.96,323.96,329.43,329.43,329.43,329.43,329.43,333.54,333.54,333.54,333.54,339.01,339.01,339.01,343.12,345.85,345.85,345.85,348.59,348.59,348.59,352.70,355.44,358.17,358.17,358.17,362.28,365.02,365.02,367.75,371.86,374.60,374.60,374.60,374.60,377.33,377.33,377.33,377.33,377.33,377.33,377.33,384.18,384.18,384.18,384.18,384.18,384.18,391.02,391.02,391.02,391.02,393.76,393.76,393.76,400.60,400.60,400.60,400.60,403.34,407.44,407.44,407.44,410.18,412.92,417.02,417.02,417.02,419.76,422.50,422.50,422.50,426.60,426.60,426.60,432.08,432.08,432.08,432.08,432.08,436.18,436.18,441.66,441.66,441.66,441.66,448.50,451.24,451.24,451.24,458.08,458.08,460.82,460.82,464.93,464.93,464.93,471.77,474.51,477.24,484.09,484.09,486.82,490.93,503.25,503.25,507.35,515.56,515.56,515.56,521.04,521.04,521.04,522.41,522.41,522.41,522.41,522.41,522.41,522.41,521.04,521.04,521.04,521.04,521.04,521.04,521.04,516.93,516.93,516.93,515.56,515.56,515.56,515.56,515.56,515.56,515.56,510.09,510.09,510.09,507.35,507.35,507.35,507.35,507.35,507.35,507.35,510.09,510.09,510.09,510.09,515.56,515.56,515.56,515.56,516.93,516.93,516.93,521.04,521.04,521.04,521.04,521.04,521.04,521.04,521.04,521.04,521.04,521.04,521.04,521.04,521.04,521.04,516.93,516.93,516.93,516.93,515.56,515.56,515.56,515.56,515.56,515.56,510.09,510.09,510.09,510.09,507.35,507.35,507.35,507.35,507.35,507.35,507.35,507.35,507.35,507.35,510.09,510.09,510.09,510.09,510.09,510.09,510.09,515.56,515.56,515.56,515.56,515.56,515.56,515.56,516.93,521.04,521.04,521.04,521.04,521.04,522.41,522.41,523.78,523.78,523.78,523.78,523.78,527.88,527.88,527.88,527.88,523.78,523.78,523.78,523.78,523.78,523.78,523.78,523.78,523.78,523.78,523.78,523.78,523.78,523.78,523.78,523.78,523.78,522.41,522.41,522.41,522.41,522.41,522.41,522.41,522.41,522.41,522.41,522.41,522.41,521.04,521.04
281.53,281.53,281.53,281.53,281.53,281.53,281.53,281.53,281.53,281.53,281.53,281.53,281.53,281.53,281.53,281.53,281.53,281.53,281.53,281.53,281.53,281.53,281.53,281.53,281.53,281.53,281.53,281.53,281.53,281.53,281.53,281.53,281.53,281.53,281.53,281.53,281.53,281.53,281.53,281.53,281.53,281.53,281.53,281.53,281.53,281.53,281.53,281.53,281.53,281.53,281.53,281.53,281.53,281.53,281.53,281.53,281.53,281.53,281.53,281.53,281.53,281.53,281.53,281.53,281.53,281.53,281.53,281.53,281.53,281.53,281.53,281.53,281.53,281.53,281.53,281.53,281.53,281.53,281.53,282.90,282.90,282.90,282.90,282.90,282.90,282.90,282.90,284.27,284.27,284.27,284.27,284.27,284.27,284.27,284.27,284.27,285.64,285.64,285.64,285.64,285.64,287.00,287.00,287.00,287.00,288.37,288.37,288.37,288.37,288.37,288.37,288.37,288.37,289.74,289.74,289.74,289.74,289.74,289.74,289.74,289.74,289.74,289.74,291.11,291.11,291.11,291.11,291.11,291.11,291.11,292.48,292.48,293.85,293.85,293.85,293.85,293.85,293.85,293.85,295.22,296.58,296.58,296.58,296.58,296.58,296.58,296.58,296.58,296.58,297.95,297.95,299.32,299.32,300.69,300.69,300.69,300.69,300.69,307.53,307.53,307.53,310.27,313.01,319.85,319.85,319.85,319.85,323.96,323.96,329.43,329.43,329.43,329.43,329.43,333.54,333.54,333.54,333.54,339.01,339.01,339.01,343.12,345.85,345.85,345.85,348.59,348.59,348.59,348.59,355.44,358.17,358.17,358.17,362.28,365.02,365.02,367.75,371.86,374.60,374.60,374.60,374.60,377.33,377.33,377.33,377.33,377.33,377.33,377.33,384.18,384.18,384.18,384.18,384.18,384.18,391.02,391.02,391.02,391.02,393.76,393.76,393.76,400.60,400.60,400.60,400.60,403.34,407.44,407.44,407.44,407.44,410.18,417.02,417.02,417.02,419.76,422.50,422.50,422.50,426.60,426.60,426.60,432.08,432.08,432.08,432.08,432.08,436.18,436.18,441.66,441.66,441.66,441.66,448.50,451.24,451.24,451.24,458.08,458.08,458.08,460.82,464.93,464.93,464.93,471.77,474.51,474.51,474.51,484.09,484.09,490.93,490.93,503.25,507.35,515.56,515.56,515.56,521.04,521.04,521.04,522.41,522.41,522.41,522.41,522.41,522.41,522.41,521.04,521.04,521.04,521.04,521.04,521.04,521.04,516.93,516.93,516.93,515.56,515.56,515.56,515.56,515.56,515.56,515.56,510.09,510.09,510.09,510.09,510.09,507.35,507.35,510.09,507.35,507.35,510.09,510.09,510.09,515.56,515.56,515.56,515.56,515.56,516.93,516.93,521.04,521.04,521.04,521.04,521.04,521.04,521.04,521.04,521.04,521.04,521.04,521.04,521.04,521.04,521.04,521.04,521.04,516.93,516.93,516.93,516.93,516.93,515.56,515.56,515.56,515.56,515.56,510.09,510.09,510.09,510.09,510.09,507.35,507.35,507.35,507.35,507.35,507.35,507.35,507.35,507.35,507.35,507.35,510.09,510.09,510.09,510.09,510.09,510.09,510.09,515.56,515.56,515.56,515.56,516.93,516.93,516.93,521.04,521.04,521.04,521.04,522.41,522.41,522.41,523.78,523.78,523.78,523.78,523.78,523.78,523.78,523.78,523.78,523.78,523.78,523.78,523.78,523.78,523.78,523.78,523.78,523.78,523.78,523.78,523.78,523.78,523.78,523.78,522.41,522.41,522.41,522.41,522.41,522.41,522.41,522.41,522.41,522.41,522.41,522.41,521.04,521.04
281.53,281.53,281.53,281.53,281.53,281.53,281.53,281.53,281.53,281.53,281.53,281.53,281.53,281.53,281.53,280.16,280.16,281.53,281.53,281.53,281.53,281.53,281.53,281.53,281.53,281.53,281.53,281.53,281.53,281.53,281.53,281.53,281.53,281.53,281.53,281.53,281.53,281.53,281.53,281.53,281.53,281.53,281.53,281.53,281.53,281.53,281.53,281.53,281.53,281.53,281.53,281.53,281.53,281.53,281.53,281.53,281.53,281.53,281.53,281.53,281.53,281.53,281.53,281.53,281.53,281.53,281.53,281.53,281.53,281.53,281.53,281.53,281.53,281.53,281.53,281.53,281.53,281.53,281.53,282.90,282.90,282.90,282.90,282.90,282.90,282.90,282.90,284.27,284.27,284.27,284.27,284.27,284.27,284.27,284.27,284.27,285.64,285.64,285.64,285.64,285.64,287.00,287.00,287.00,287.00,288.37,288.37,288.37,288.37,288.37,288.37,288.37,288.37,289.74,289.74,289.74,289.74,289.74,289.74,289.74,289.74,289.74,289.74,291.11,291.11,291.11,291.11,291.11,291.11,291.11,292.48,292.48,293.85,293.85,293.85,293.85,293.85,293.85,293.85,295.22,296.58,296.58,296.58,296.58,296.58,296.58,296.58,296.58,296.58,297.95,297.95,299.32,299.32,299.32,300.69,300.69,300.69,300.69,307.53,307.53,307.53,310.27,313.01,313.01,313.01,319.85,319.85,323.96,323.96,329.43,329.43,329.43,329.43,329.43,333.54,333.54,333.54,333.54,339.01,339.01,339.01,343.12,343.12,343.12,345.85,348.59,348.59,348.59,348.59,355.44,358.17,358.17,358.17,362.28,365.02,365.02,367.75,371.86,374.60,374.60,374.60,374.60,377.33,377.33,377.33,377.33,377.33,377.33,377.33,384.18,384.18,384.18,384.18,384.18,384.18,391.02,391.02,391.02,391.02,393.76,393.76,393.76,400.60,400.60,400.60,400.60,403.34,403.34,407.44,407.44,407.44,410.18,412.92,412.92,417.02,419.76,422.50,422.50,422.50,426.60,432.08,432.08,432.08,432.08,432.08,432.08,436.18,441.66,441.66,441.66,441.66,441.66,441.66,448.50,451.24,451.24,451.24,458.08,458.08,458.08,458.08,464.93,464.93,464.93,467.66,474.51,474.51,474.51,484.09,484.09,490.93,490.93,503.25,507.35,510.09,510.09,515.56,516.93,521.04,521.04,521.04,521.04,521.04,521.04,521.04,521.04,521.04,521.04,521.04,521.04,521.04,516.93,516.93,516.93,516.93,516.93,515.56,515.56,515.56,515.56,515.56,515.56,515.56,515.56,510.09,510.09,510.09,510.09,510.09,510.09,510.09,510.09,510.09,510.09,510.09,515.56,515.56,515.56,515.56,515.56,515.56,516.93,516.93,516.93,521.04,521.04,521.04,521.04,521.04,521.04,521.04,521.04,521.04,521.04,521.04,521.04,521.04,521.04,521.04,521.04,521.04,521.04,521.04,516.93,516.93,516.93,516.93,515.56,515.56,515.56,515.56,515.56,515.56,510.09,510.09,510.09,510.09,507.35,507.35,507.35,507.35,507.35,507.35,507.35,507.35,507.35,507.35,507.35,507.35,507.35,507.35,510.09,510.09,510.09,510.09,515.56,515.56,515.56,515.56,515.56,516.93,521.04,521.04,521.04,521.04,521.04,522.41,522.41,522.41,522.41,522.41,522.41,522.41,522.41,522.41,522.41,522.41,522.41,522.41,522.41,522.41,522.41,522.41,522.41,522.41,522.41,522.41,522.41,522.41,522.41,522.41,522.41,522.41,521.04,521.04,521.04,521.04,521.04,521.04,521.04,521.04,521.04,521.04,521.04,521.04,521.04
281.53,281.53,281.53,281.53,281.53,281.53,281.53,281.53,281.53,281.53,281.53,281.53,281.53,281.53,281.53,281.53,281.53,281.53,281.53,281.53,281.53,281.53,281.53,281.53,281.53,281.53,281.53,281.53,281.53,281.53,281.53,281.53,281.53,281.53,281.53,281.53,281.53,281.53,281.53,281.53,281.53,281.53,281.53,281.53,281.53,281.53,281.53,281.53,281.53,281.53,281.53,281.53,281.53,281.53,281.53,281.53,281.53,281.53,281.53,281.53,281.53,281.53,281.53,281.53,281.53,281.53,281.53,281.53,281.53,281.53,281.53,281.53,281.53,281.53,281.53,281.53,281.53,281.53,281.53,281.53,282.90,282.90,282.90,282.90,282.90,282.90,282.90,284.27,284.27,284.27,284.27,284.27,284.27,284.27,284.27,284.27,285.64,285.64,285.64,285.64,287.00,287.00,287.00,287.00,287.00,288.37,288.37,288.37,288.37,288.37,288.37,288.37,288.37,289.74,289.74,289.74,289.74,289.74,289.74,289.74,289.74,291.11,291.11,291.11,291.11,291.11,291.11,291.11,292.48,292.48,292.48,293.85,293.85,293.85,293.85,293.85,293.85,293.85,295.22,295.22,296.58,296.58,296.58,296.58,296.58,296.58,296.58,296.58,296.58,297.95,297.95,299.32,299.32,299.32,300.69,300.69,300.69,300.69,307.53,307.53,307.53,307.53,310.27,313.01,313.01,319.85,319.85,323.96,323.96,329.43,329.43,329.43,329.43,329.43,333.54,333.54,333.54,333.54,339.01,339.01,339.01,343.12,343.12,343.12,345.85,348.59,348.59,348.59,348.59,355.44,358.17,358.17,358.17,362.28,365.02,365.02,367.75,371.86,374.60,374.60,374.60,374.60,374.60,374.60,377.33,377.33,377.33,377.33,377.33,384.18,384.18,384.18,384.18,384.18,384.18,391.02,391.02,391.02,391.02,393.76,393.76,393.76,400.60,400.60,400.60,400.60,403.34,403.34,407.44,407.44,407.44,410.18,412.92,412.92,417.02,419.76,422.50,422.50,422.50,426.60,432.08,432.08,432.08,432.08,432.08,432.08,436.18,441.66,441.66,441.66,441.66,448.50,448.50,448.50,451.24,451.24,451.24,458.08,458.08,458.08,458.08,464.93,464.93,464.93,467.66,471.77,474.51,474.51,477.24,484.09,486.82,486.82,490.93,503.25,507.35,507.35,515.56,515.56,515.56,515.56,516.93,521.04,521.04,521.04,521.04,521.04,521.04,516.93,516.93,516.93,516.93,516.93,515.56,515.56,515.56,515.56,515.56,515.56,515.56,515.56,515.56,515.56,515.56,515.56,510.09,510.09,510.09,510.09,510.09,510.09,510.09,510.09,510.09,510.09,510.09,515.56,515.56,515.56,515.56,515.56,515.56,516.93,516.93,516.93,521.04,521.04,521.04,521.04,521.04,521.04,521.04,521.04,521.04,521.04,521.04,521.04,521.04,521.04,521.04,521.04,521.04,521.04,521.04,521.04,516.93,516.93,516.93,515.56,515.56,515.56,515.56,515.56,515.56,515.56,510.09,510.09,510.09,510.09,510.09,507.35,507.35,507.35,507.35,507.35,507.35,507.35,507.35,507.35,507.35,507.35,507.35,510.09,510.09,510.09,510.09,515.56,515.56,515.56,515.56,515.56,516.93,521.04,521.04,521.04,521.04,521.04,521.04,521.04,521.04,521.04,521.04,521.04,521.04,521.04,521.04,521.04,521.04,521.04,521.04,521.04,521.04,521.04,521.04,521.04,521.04,521.04,521.04,521.04,521.04,521.04,521.04,521.04,521.04,521.04,521.04,521.04,521.04,521.04,521.04,521.04,521.04,521.04,521.04,516.93,516.93,516.93
281.53,281.53,281.53,281.53,281.53,281.53,281.53,281.53,281.53,281.53,281.53,281.53,281.53,281.53,281.53,280.16,280.16,281.53,281.53,281.53,281.53,281.53,281.53,281.53,281.53,281.53,281.53,281.53,281.53,281.53,281.53,281.53,281.53,281.53,281.53,281.53,281.53,281.53,281.53,281.53,281.53,281.53,281.53,281.53,281.53,281.53,281.53,281.53,281.53,281.53,281.53,281.53,281.53,281.53,281.53,281.53,281.53,281.53,281.53,281.53,281.53,281.53,281.53,281.53,281.53,281.53,281.53,281.53,281.53,281.53,281.53,281.53,281.53,281.53,281.53,281.53,281.53,281.53,281.53,281.53,282.90,282.90,282.90,282.90,282.90,282.90,282.90,282.90,284.27,284.27,284.27,284.27,284.27,284.27,284.27,284.27,285.64,285.64,285.64,285.64,287.00,287.00,287.00,287.00,287.00,288.37,288.37,288.37,288.37,288.37,288.37,288.37,288.37,289.74,289.74,289.74,289.74,289.74,289.74,289.74,289.74,291.11,291.11,291.11,291.11,291.11,291.11,291.11,292.48,292.48,292.48,293.85,293.85,293.85,293.85,293.85,293.85,293.85,295.22,296.58,296.58,296.58,296.58,296.58,296.58,296.58,296.58,296.58,296.58,297.95,297.95,299.32,299.32,299.32,300.69,300.69,300.69,300.69,307.53,307.53,307.53,307.53,310.27,313.01,313.01,319.85,319.85,323.96,323.96,329.43,329.43,329.43,329.43,329.43,333.54,333.54,333.54,333.54,339.01,339.01,339.01,343.12,343.12,343.12,345.85,348.59,348.59,348.59,352.70,355.44,358.17,358.17,358.17,362.28,365.02,365.02,365.02,367.75,371.86,371.86,374.60,374.60,374.60,374.60,377.33,377.33,377.33,377.33,377.33,384.18,384.18,384.18,384.18,384.18,384.18,391.02,391.02,391.02,391.02,393.76,393.76,393.76,400.60,400.60,400.60,400.60,400.60,403.34,407.44,407.44,407.44,410.18,410.18,412.92,417.02,419.76,422.50,422.50,422.50,426.60,432.08,432.08,432.08,432.08,432.08,432.08,436.18,441.66,441.66,441.66,441.66,448.50,448.50,448.50,451.24,451.24,451.24,458.08,458.08,458.08,458.08,464.93,464.93,464.93,467.66,471.77,474.51,474.51,477.24,484.09,486.82,486.82,490.93,503.25,507.35,507.35,515.56,515.56,515.56,515.56,516.93,521.04,521.04,521.04,521.04,521.04,521.04,516.93,516.93,516.93,516.93,516.93,515.56,515.56,515.56,515.56,515.56,515.56,515.56,515.56,515.56,515.56,515.56,515.56,510.09,510.09,510.09,510.09,510.09,510.09,510.09,510.09,510.09,510.09,510.09,515.56,515.56,515.56,515.56,515.56,515.56,516.93,516.93,516.93,516.93,521.04,521.04,521.04,521.04,521.04,521.04,521.04,521.04,521.04,521.04,521.04,521.04,521.04,521.04,521.04,521.04,521.04,521.04,521.04,516.93,516.93,516.93,515.56,515.56,515.56,515.56,515.56,515.56,515.56,510.09,510.09,510.09,510.09,510.09,507.35,507.35,507.35,507.35,507.35,507.35,507.35,507.35,507.35,507.35,507.35,507.35,507.35,507.35,510.09,510.09,510.09,510.09,515.56,515.56,515.56,515.56,516.93,521.04,521.04,521.04,521.04,521.04,521.04,521.04,521.04,521.04,521.04,521.04,521.04,521.04,521.04,521.04,521.04,521.04,521.04,521.04,521.04,521.04,521.04,521.04,521.04,521.04,521.04,521.04,521.04,521.04,521.04,521.04,521.04,521.04,521.04,521.04,521.04,515.56,515.56,515.56,515.56,515.56,515.56,515.56,515.56
281.53,281.53,281.53,281.53,281.53,281.53,281.53,281.53,281.53,281.53,281.53,281.53,281.53,281.53,281.53,281.53,281.53,281.53,281.53,281.53,281.53,281.53,281.53,281.53,281.53,281.53,281.53,281.53,281.53,281.53,281.53,281.53,281.53,281.53,281.53,281.53,281.53,281.53,281.53,281.53,281.53,281.53,281.53,281.53,281.53,281.53,281.53,281.53,281.53,281.53,281.53,281.53,281.53,281.53,281.53,281.53,281.53,281.53,281.53,281.53,281.53,281.53,281.53,281.53,281.53,281.53,281.53,281.53,281.53,281.53,281.53,281.53,281.53,281.53,281.53,281.53,281.53,281.53,281.53,281.53,282.90,282.90,282.90,282.90,282.90,282.90,282.90,282.90,284.27,284.27,284.27,284.27,284.27,284.27,284.27,285.64,285.64,285.64,285.64,285.64,287.00,287.00,287.00,287.00,287.00,288.37,288.37,288.37,288.37,288.37,288.37,288.37,288.37,289.74,289.74,289.74,289.74,289.74,289.74,289.74,289.74,291.11,291.11,291.11,291.11,291.11,291.11,291.11,292.48,292.48,292.48,293.85,293.85,293.85,293.85,293.85,293.85,293.85,295.22,296.58,296.58,296.58,296.58,296.58,296.58,296.58,296.58,296.58,296.58,297.95,297.95,297.95,297.95,299.32,300.69,300.69,300.69,300.69,300.69,307.53,307.53,307.53,310.27,313.01,313.01,319.85,319.85,323.96,323.96,323.96,329.43,329.43,329.43,329.43,333.54,333.54,333.54,333.54,339.01,339.01,339.01,343.12,343.12,343.12,345.85,348.59,348.59,348.59,352.70,355.44,358.17,358.17,358.17,362.28,365.02,365.02,365.02,367.75,371.86,371.86,374.60,374.60,374.60,374.60,377.33,377.33,377.33,377.33,384.18,384.18,384.18,384.18,384.18,384.18,384.18,391.02,391.02,391.02,391.02,393.76,393.76,393.76,400.60,400.60,400.60,400.60,400.60,403.34,407.44,407.44,407.44,410.18,410.18,412.92,417.02,419.76,419.76,422.50,422.50,422.50,422.50,432.08,432.08,432.08,432.08,432.08,436.18,441.66,441.66,441.66,441.66,448.50,448.50,448.50,451.24,451.24,451.24,458.08,458.08,458.08,458.08,460.82,464.93,464.93,467.66,471.77,474.51,474.51,477.24,484.09,486.82,486.82,490.93,503.25,507.35,507.35,510.09,515.56,515.56,515.56,515.56,515.56,515.56,516.93,515.56,515.56,515.56,515.56,515.56,515.56,515.56,515.56,515.56,515.56,515.56,515.56,515.56,515.56,515.56,515.56,515.56,515.56,515.56,515.56,510.09,510.09,510.09,510.09,510.09,510.09,510.09,510.09,510.09,510.09,515.56,515.56,515.56,515.56,515.56,515.56,515.56,516.93,516.93,516.93,516.93,521.04,521.04,521.04,521.04,521.04,521.04,521.04,521.04,521.04,521.04,521.04,521.04,521.04,521.04,521.04,521.04,521.04,521.04,516.93,516.93,516.93,516.93,515.56,515.56,515.56,515.56,515.56,515.56,515.56,510.09,510.09,510.09,510.09,510.09,507.35,507.35,507.35,507.35,507.35,507.35,503.25,503.25,503.25,503.25,503.25,503.25,507.35,507.35,507.35,507.35,510.09,510.09,515.56,515.56,515.56,515.56,515.56,516.93,516.93,516.93,521.04,521.04,521.04,521.04,521.04,521.04,521.04,521.04,521.04,521.04,521.04,521.04,521.04,521.04,521.04,521.04,521.04,521.04,521.04,521.04,521.04,521.04,516.93,516.93,516.93,516.93,516.93,516.93,516.93,516.93,516.93,516.93,516.93,515.56,515.56,515.56,515.56,515.56,515.56,515.56,515.56
281.53,281.53,281.53,281.53,281.53,281.53,281.53,281.53,281.53,281.53,281.53,281.53,281.53,281.53,281.53,281.53,280.16,281.53,281.53,281.53,281.53,281.53,281.53,281.53,281.53,281.53,281.53,281.53,281.53,281.53,281.53,281.53,281.53,281.53,281.53,281.53,281.53,281.53,281.53,281.53,281.53,281.53,281.53,281.53,281.53,281.53,281.53,281.53,281.53,281.53,281.53,281.53,281.53,281.53,281.53,281.53,281.53,281.53,281.53,281.53,281.53,281.53,281.53,281.53,281.53,281.53,281.53,281.53,281.53,281.53,281.53,281.53,281.53,281.53,281.53,281.53,281.53,281.53,281.53,281.53,282.90,282.90,282.90,282.90,282.90,282.90,282.90,282.90,284.27,284.27,284.27,284.27,284.27,284.27,284.27,285.64,285.64,285.64,285.64,285.64,287.00,287.00,287.00,287.00,287.00,288.37,288.37,288.37,288.37,288.37,288.37,288.37,288.37,289.74,289.74,289.74,289.74,289.74,289.74,289.74,289.74,291.11,291.11,291.11,291.11,291.11,291.11,291.11,292.48,292.48,292.48,293.85,293.85,293.85,293.85,293.85,295.22,295.22,295.22,296.58,296.58,296.58,296.58,296.58,296.58,296.58,296.58,296.58,296.58,297.95,297.95,297.95,297.95,299.32,300.69,300.69,300.69,300.69,300.69,307.53,307.53,307.53,310.27,313.01,313.01,319.85,319.85,319.85,319.85,323.96,329.43,329.43,329.43,329.43,333.54,333.54,333.54,333.54,339.01,339.01,339.01,339.01,343.12,343.12,345.85,348.59,348.59,348.59,352.70,355.44,358.17,358.17,358.17,362.28,365.02,365.02,365.02,367.75,371.86,371.86,374.60,374.60,374.60,374.60,377.33,377.33,377.33,377.33,384.18,384.18,384.18,384.18,384.18,384.18,384.18,391.02,391.02,391.02,391.02,393.76,393.76,393.76,400.60,400.60,400.60,400.60,400.60,403.34,407.44,407.44,407.44,410.18,410.18,412.92,417.02,419.76,419.76,422.50,422.50,422.50,422.50,432.08,432.08,432.08,432.08,432.08,436.18,441.66,441.66,441.66,441.66,448.50,448.50,448.50,451.24,451.24,451.24,458.08,458.08,458.08,458.08,460.82,464.93,464.93,467.66,471.77,474.51,474.51,477.24,484.09,484.09,484.09,490.93,503.25,503.25,503.25,507.35,510.09,510.09,510.09,515.56,515.56,515.56,515.56,515.56,515.56,515.56,515.56,515.56,515.56,515.56,515.56,515.56,515.56,515.56,515.56,515.56,515.56,515.56,515.56,515.56,515.56,510.09,510.09,510.09,510.09,510.09,510.09,510.09,510.09,510.09,510.09,510.09,510.09,515.56,515.56,515.56,515.56,515.56,515.56,515.56,515.56,515.56,516.93,516.93,516.93,516.93,516.93,521.04,521.04,521.04,521.04,521.04,521.04,521.04,521.04,521.04,521.04,521.04,521.04,521.04,521.04,521.04,516.93,516.93,516.93,516.93,515.56,515.56,515.56,515.56,515.56,515.56,515.56,510.09,510.09,510.09,510.09,510.09,507.35,507.35,507.35,507.35,507.35,507.35,503.25,503.25,503.25,503.25,503.25,503.25,503.25,503.25,507.35,507.35,507.35,507.35,510.09,510.09,510.09,515.56,515.56,515.56,515.56,515.56,515.56,515.56,516.93,516.93,516.93,516.93,516.93,516.93,516.93,516.93,516.93,516.93,516.93,516.93,516.93,515.56,515.56,515.56,515.56,515.56,515.56,515.56,515.56,515.56,515.56,515.56,515.56,515.56,515.56,515.56,515.56,515.56,515.56,515.56,515.56,515.56,515.56,515.56,515.56,515.56,515.56
281.53,281.53,281.53,281.53,281.53,281.53,281.53,281.53,281.53,281.53,281.53,281.53,281.53,281.53,281.53,281.53,281.53,281.53,281.53,281.53,281.53,281.53,281.53,281.53,281.53,281.53,281.53,281.53,281.53,281.53,281.53,281.53,281.53,281.53,281.53,281.53,281.53,281.53,281.53,281.53,281.53,281.53,281.53,281.53,281.53,281.53,281.53,281.53,281.53,281.53,281.53,281.53,281.53,281.53,281.53,281.53,281.53,281.53,281.53,281.53,281.53,281.53,281.53,281.53,281.53,281.53,281.53,281.53,281.53,281.53,281.53,281.53,281.53,281.53,281.53,281.53,281.53,281.53,281.53,281.53,282.90,282.90,282.90,282.90,282.90,282.90,282.90,282.90,284.27,284.27,284.27,284.27,284.27,284.27,284.27,285.64,285.64,285.64,285.64,285.64,287.00,287.00,287.00,287.00,287.00,288.37,288.37,288.37,288.37,288.37,288.37,288.37,288.37,288.37,289.74,289.74,289.74,289.74,289.74,289.74,291.11,291.11,291.11,291.11,291.11,291.11,291.11,291.11,292.48,292.48,293.85,293.85,293.85,293.85,293.85,293.85,295.22,295.22,295.22,296.58,296.58,296.58,296.58,296.58,296.58,296.58,296.58,296.58,296.58,297.95,297.95,299.32,299.32,299.32,300.69,300.69,300.69,300.69,300.69,307.53,307.53,307.53,310.27,313.01,313.01,319.85,319.85,319.85,319.85,323.96,329.43,329.43,329.43,329.43,333.54,333.54,333.54,333.54,339.01,339.01,339.01,339.01,343.12,343.12,345.85,348.59,348.59,348.59,352.70,355.44,355.44,355.44,358.17,362.28,365.02,365.02,365.02,365.02,365.02,367.75,371.86,374.60,374.60,374.60,377.33,377.33,377.33,377.33,384.18,384.18,384.18,384.18,384.18,384.18,384.18,391.02,391.02,391.02,391.02,393.76,393.76,393.76,400.60,400.60,400.60,400.60,400.60,403.34,407.44,407.44,407.44,410.18,410.18,412.92,417.02,419.76,419.76,422.50,422.50,422.50,422.50,432.08,432.08,432.08,432.08,436.18,436.18,441.66,441.66,441.66,441.66,448.50,448.50,448.50,451.24,451.24,451.24,458.08,458.08,458.08,458.08,460.82,464.93,464.93,467.66,471.77,474.51,474.51,477.24,484.09,484.09,484.09,490.93,503.25,503.25,503.25,507.35,510.09,510.09,510.09,510.09,510.09,510.09,510.09,510.09,510.09,510.09,510.09,510.09,510.09,510.09,510.09,510.09,510.09,510.09,510.09,510.09,510.09,510.09,510.09,510.09,510.09,510.09,510.09,510.09,510.09,510.09,510.09,510.09,510.09,510.09,510.09,510.09,510.09,515.56,515.56,515.56,515.56,515.56,515.56,515.56,515.56,515.56,515.56,515.56,516.93,516.93,516.93,516.93,516.93,516.93,516.93,516.93,516.93,516.93,516.93,516.93,516.93,516.93,516.93,516.93,516.93,516.93,516.93,516.93,516.93,515.56,515.56,515.56,515.56,515.56,515.56,515.56,510.09,510.09,510.09,510.09,507.35,507.35,507.35,507.35,507.35,503.25,503.25,503.25,503.25,503.25,503.25,503.25,503.25,503.25,503.25,503.25,507.35,507.35,507.35,507.35,510.09,510.09,510.09,515.56,515.56,515.56,515.56,515.56,515.56,515.56,516.93,516.93,516.93,516.93,516.93,516.93,516.93,516.93,516.93,516.93,516.93,516.93,516.93,515.56,515.56,515.56,515.56,515.56,515.56,515.56,515.56,515.56,515.56,510.09,510.09,510.09,510.09,510.09,510.09,510.09,510.09,510.09,510.09,510.09,510.09,510.09,510.09,510.09,510.09
281.53,281.53,281.53,281.53,281.53,281.53,281.53,281.53,281.53,281.53,281.53,281.53,281.53,281.53,281.53,281.53,281.53,281.53,281.53,281.53,281.53,281.53,281.53,281.53,281.53,281.53,281.53,281.53,281.53,281.53,281.53,281.53,281.53,281.53,281.53,281.53,281.53,281.53,281.53,281.53,281.53,281.53,281.53,281.53,281.53,281.53,281.53,281.53,281.53,281.53,281.53,281.53,281.53,281.53,281.53,281.53,281.53,281.53,281.53,281.53,281.53,281.53,281.53,281.53,281.53,281.53,281.53,281.53,281.53,281.53,281.53,281.53,281.53,281.53,281.53,281.53,281.53,281.53,281.53,281.53,282.90,282.90,282.90,282.90,282.90,282.90,282.90,282.90,282.90,284.27,284.27,284.27,284.27,284.27,284.27,285.64,285.64,285.64,285.64,285.64,287.00,287.00,287.00,287.00,287.00,288.37,288.37,288.37,288.37,288.37,288.37,288.37,288.37,288.37,289.74,289.74,289.74,289.74,289.74,289.74,291.11,291.11,291.11,291.11,291.11,291.11,291.11,291.11,292.48,292.48,293.85,293.85,293.85,293.85,293.85,293.85,295.22,295.22,295.22,296.58,296.58,296.58,296.58,296.58,296.58,296.58,296.58,296.58,296.58,297.95,297.95,299.32,299.32,299.32,300.69,300.69,300.69,300.69,300.69,307.53,307.53,307.53,310.27,313.01,313.01,319.85,319.85,319.85,319.85,323.96,329.43,329.43,329.43,329.43,333.54,333.54,333.54,333.54,339.01,339.01,339.01,339.01,343.12,343.12,345.85,348.59,348.59,348.59,352.70,355.44,355.44,355.44,358.17,358.17,358.17,362.28,365.02,365.02,365.02,367.75,371.86,374.60,374.60,374.60,377.33,377.33,377.33,377.33,384.18,384.18,384.18,384.18,384.18,384.18,384.18,391.02,391.02,391.02,391.02,393.76,393.76,393.76,400.60,400.60,400.60,400.60,400.60,403.34,403.34,407.44,407.44,410.18,410.18,412.92,417.02,419.76,419.76,422.50,422.50,422.50,422.50,426.60,432.08,432.08,432.08,436.18,436.18,441.66,441.66,441.66,441.66,448.50,448.50,448.50,451.24,451.24,451.24,458.08,458.08,458.08,458.08,460.82,464.93,464.93,464.93,471.77,474.51,474.51,477.24,484.09,484.09,484.09,486.82,490.93,503.25,503.25,503.25,507.35,507.35,507.35,510.09,510.09,510.09,510.09,510.09,510.09,510.09,510.09,510.09,510.09,510.09,510.09,510.09,510.09,510.09,510.09,510.09,510.09,510.09,510.09,510.09,510.09,510.09,510.09,510.09,510.09,510.09,510.09,510.09,510.09,510.09,510.09,510.09,510.09,515.56,515.56,515.56,515.56,515.56,515.56,515.56,515.56,515.56,515.56,515.56,515.56,515.56,515.56,515.56,515.56,515.56,515.56,515.56,515.56,515.56,515.56,515.56,515.56,515.56,515.56,515.56,515.56,515.56,515.56,515.56,515.56,515.56,515.56,515.56,515.56,510.09,510.09,510.09,510.09,510.09,510.09,507.35,507.35,507.35,503.25,503.25,503.25,503.25,503.25,503.25,503.25,503.25,503.25,503.25,503.25,503.25,503.25,503.25,503.25,503.25,503.25,507.35,507.35,510.09,510.09,510.09,510.09,510.09,515.56,515.56,515.56,515.56,515.56,515.56,515.56,515.56,515.56,515.56,515.56,515.56,515.56,515.56,515.56,515.56,515.56,515.56,515.56,515.56,515.56,515.56,515.56,515.56,515.56,515.56,515.56,510.09,510.09,510.09,510.09,510.09,510.09,510.09,510.09,510.09,510.09,510.09,510.09,510.09,510.09,510.09,510.09
281.53,281.53,281.53,281.53,281.53,281.53,281.53,281.53,281.53,281.53,281.53,281.53,281.53,281.53,281.53,281.53,281.53,280.16,281.53,281.53,281.53,281.53,281.53,281.53,281.53,281.53,281.53,281.53,281.53,281.53,281.53,281.53,281.53,281.53,281.53,281.53,281.53,281.53,281.53,281.53,281.53,281.53,281.53,281.53,281.53,281.53,281.53,281.53,281.53,281.53,281.53,281.53,281.53,281.53,281.53,281.53,281.53,281.53,281.53,281.53,281.53,281.53,281.53,281.53,281.53,281.53,281.53,281.53,281.53,281.53,281.53,281.53,281.53,281.53,281.53,281.53,281.53,281.53,281.53,281.53,282.90,282.90,282.90,282.90,282.90,282.90,282.90,282.90,282.90,284.27,284.27,284.27,284.27,284.27,284.27,285.64,285.64,285.64,285.64,285.64,287.00,287.00,287.00,287.00,287.00,288.37,288.37,288.37,288.37,288.37,288.37,288.37,288.37,288.37,289.74,289.74,289.74,289.74,289.74,289.74,289.74,289.74,289.74,291.11,291.11,291.11,291.11,291.11,292.48,292.48,293.85,293.85,293.85,293.85,293.85,293.85,295.22,295.22,295.22,296.58,296.58,296.58,296.58,296.58,296.58,296.58,296.58,296.58,296.58,297.95,297.95,299.32,299.32,299.32,300.69,300.69,300.69,300.69,300.69,307.53,307.53,307.53,310.27,310.27,310.27,313.01,319.85,319.85,319.85,323.96,323.96,323.96,329.43,329.43,329.43,329.43,333.54,333.54,333.54,333.54,339.01,339.01,343.12,343.12,345.85,348.59,348.59,348.59,348.59,352.70,355.44,355.44,358.17,358.17,358.17,362.28,365.02,365.02,365.02,367.75,371.86,374.60,374.60,374.60,377.33,377.33,377.33,377.33,384.18,384.18,384.18,384.18,384.18,384.18,384.18,391.02,391.02,391.02,391.02,393.76,393.76,393.76,400.60,400.60,400.60,400.60,400.60,403.34,403.34,407.44,407.44,410.18,410.18,412.92,417.02,419.76,419.76,422.50,422.50,422.50,422.50,426.60,432.08,432.08,432.08,436.18,436.18,441.66,441.66,441.66,441.66,448.50,448.50,448.50,451.24,451.24,451.24,458.08,458.08,458.08,458.08,460.82,464.93,464.93,464.93,467.66,474.51,474.51,474.51,477.24,484.09,484.09,486.82,490.93,490.93,490.93,503.25,503.25,503.25,503.25,507.35,507.35,507.35,507.35,507.35,507.35,507.35,507.35,507.35,507.35,507.35,507.35,507.35,510.09,510.09,510.09,510.09,510.09,510.09,510.09,510.09,510.09,510.09,510.09,510.09,510.09,510.09,510.09,510.09,510.09,510.09,510.09,510.09,510.09,510.09,510.09,510.09,515.56,515.56,515.56,515.56,515.56,515.56,515.56,515.56,515.56,515.56,515.56,515.56,515.56,515.56,515.56,515.56,515.56,515.56,515.56,515.56,515.56,515.56,515.56,515.56,515.56,515.56,515.56,515.56,515.56,515.56,515.56,515.56,515.56,510.09,510.09,510.09,510.09,510.09,507.35,507.35,503.25,503.25,503.25,503.25,503.25,503.25,503.25,503.25,503.25,503.25,503.25,503.25,503.25,503.25,503.25,503.25,503.25,503.25,503.25,503.25,503.25,507.35,507.35,507.35,507.35,507.35,510.09,510.09,510.09,510.09,510.09,510.09,510.09,510.09,510.09,510.09,510.09,510.09,510.09,510.09,510.09,510.09,510.09,510.09,510.09,510.09,510.09,510.09,510.09,510.09,510.09,510.09,507.35,507.35,507.35,507.35,507.35,507.35,507.35,507.35,503.25,503.25,503.25,503.25,503.25,503.25,503.25,503.25,503.25
281.53,281.53,281.53,281.53,281.53,281.53,281.53,281.53,281.53,281.53,281.53,281.53,281.53,281.53,281.53,281.53,281.53,281.53,281.53,281.53,281.53,281.53,281.53,281.53,281.53,281.53,281.53,281.53,281.53,281.53,281.53,281.53,281.53,281.53,281.53,281.53,281.53,281.53,281.53,281.53,281.53,281.53,281.53,281.53,281.53,281.53,281.53,281.53,281.53,281.53,281.53,281.53,281.53,281.53,281.53,281.53,281.53,281.53,281.53,281.53,281.53,281.53,281.53,281.53,281.53,281.53,281.53,281.53,281.53,281.53,281.53,281.53,281.53,281.53,281.53,281.53,281.53,281.53,281.53,281.53,281.53,282.90,282.90,282.90,282.90,282.90,282.90,282.90,282.90,282.90,284.27,284.27,284.27,284.27,284.27,285.64,285.64,285.64,285.64,285.64,287.00,287.00,287.00,287.00,287.00,287.00,288.37,288.37,288.37,288.37,288.37,288.37,288.37,288.37,289.74,289.74,289.74,289.74,289.74,289.74,289.74,289.74,289.74,291.11,291.11,291.11,291.11,291.11,292.48,292.48,293.85,293.85,293.85,293.85,293.85,293.85,295.22,295.22,295.22,296.58,296.58,296.58,296.58,296.58,296.58,296.58,296.58,297.95,297.95,297.95,297.95,299.32,299.32,300.69,300.69,300.69,300.69,300.69,300.69,307.53,307.53,307.53,307.53,310.27,310.27,313.01,319.85,319.85,319.85,319.85,323.96,323.96,329.43,329.43,329.43,329.43,333.54,333.54,333.54,333.54,339.01,339.01,343.12,343.12,345.85,348.59,348.59,348.59,348.59,352.70,352.70,355.44,358.17,358.17,358.17,362.28,365.02,365.02,365.02,367.75,371.86,371.86,371.86,374.60,374.60,377.33,377.33,377.33,384.18,384.18,384.18,384.18,384.18,384.18,384.18,391.02,391.02,391.02,391.02,393.76,393.76,393.76,400.60,400.60,400.60,400.60,400.60,403.34,403.34,407.44,407.44,410.18,410.18,412.92,417.02,419.76,419.76,422.50,422.50,422.50,422.50,426.60,432.08,432.08,432.08,436.18,436.18,441.66,441.66,441.66,441.66,448.50,448.50,448.50,451.24,451.24,451.24,458.08,458.08,458.08,458.08,460.82,464.93,464.93,464.93,467.66,471.77,471.77,474.51,477.24,484.09,484.09,484.09,486.82,486.82,490.93,490.93,503.25,503.25,503.25,503.25,503.25,503.25,503.25,503.25,503.25,503.25,503.25,503.25,503.25,503.25,503.25,503.25,507.35,507.35,507.35,507.35,507.35,507.35,507.35,507.35,507.35,507.35,507.35,507.35,507.35,507.35,507.35,507.35,507.35,507.35,507.35,507.35,510.09,510.09,510.09,510.09,510.09,510.09,510.09,515.56,515.56,515.56,515.56,515.56,515.56,515.56,515.56,515.56,515.56,515.56,515.56,515.56,515.56,515.56,515.56,515.56,515.56,515.56,515.56,515.56,515.56,515.56,515.56,510.09,510.09,510.09,510.09,510.09,510.09,510.09,510.09,510.09,507.35,507.35,507.35,507.35,503.25,503.25,503.25,503.25,503.25,503.25,503.25,503.25,503.25,503.25,503.25,503.25,503.25,503.25,503.25,503.25,503.25,503.25,503.25,503.25,503.25,507.35,507.35,507.35,507.35,507.35,510.09,510.09,510.09,510.09,510.09,510.09,510.09,510.09,510.09,507.35,507.35,507.35,507.35,507.35,507.35,507.35,507.35,507.35,507.35,507.35,507.35,503.25,503.25,503.25,503.25,503.25,503.25,503.25,503.25,503.25,503.25,503.25,503.25,503.25,503.25,503.25,503.25,503.25,503.25,503.25,503.25,503.25,503.25
281.53,281.53,281.53,281.53,281.53,281.53,281.53,281.53,281.53,281.53,281.53,281.53,281.53,281.53,281.53,281.53,281.53,281.53,280.16,281.53,281.53,281.53,281.53,281.53,281.53,281.53,281.53,281.53,281.53,281.53,281.53,281.53,281.53,281.53,281.53,281.53,281.53,281.53,281.53,281.53,281.53,281.53,281.53,281.53,281.53,281.53,281.53,281.53,281.53,281.53,281.53,281.53,281.53,281.53,281.53,281.53,281.53,281.53,281.53,281.53,281.53,281.53,281.53,281.53,281.53,281.53,281.53,281.53,281.53,281.53,281.53,281.53,281.53,281.53,281.53,281.53,281.53,281.53,281.53,281.53,281.53,281.53,282.90,282.90,282.90,282.90,282.90,282.90,282.90,282.90,284.27,284.27,284.27,284.27,284.27,285.64,285.64,285.64,285.64,285.64,287.00,287.00,287.00,287.00,287.00,288.37,288.37,288.37,288.37,288.37,288.37,288.37,288.37,288.37,289.74,289.74,289.74,289.74,289.74,289.74,289.74,289.74,289.74,291.11,291.11,291.11,291.11,291.11,292.48,292.48,293.85,293.85,293.85,293.85,293.85,293.85,295.22,295.22,295.22,296.58,296.58,296.58,296.58,296.58,296.58,296.58,296.58,297.95,297.95,297.95,297.95,299.32,299.32,300.69,300.69,300.69,300.69,300.69,300.69,307.53,307.53,307.53,307.53,310.27,310.27,313.01,319.85,319.85,319.85,319.85,323.96,323.96,329.43,329.43,329.43,329.43,333.54,333.54,333.54,333.54,339.01,339.01,343.12,343.12,345.85,348.59,348.59,348.59,348.59,352.70,352.70,355.44,358.17,358.17,358.17,362.28,365.02,365.02,365.02,365.02,367.75,371.86,371.86,374.60,374.60,377.33,377.33,377.33,384.18,384.18,384.18,384.18,384.18,384.18,384.18,391.02,391.02,391.02,391.02,393.76,393.76,393.76,400.60,400.60,400.60,400.60,400.60,403.34,403.34,407.44,407.44,410.18,410.18,412.92,417.02,419.76,419.76,422.50,422.50,422.50,422.50,426.60,432.08,432.08,432.08,436.18,436.18,441.66,441.66,441.66,441.66,448.50,448.50,448.50,451.24,451.24,451.24,458.08,458.08,458.08,458.08,460.82,464.93,464.93,464.93,467.66,471.77,471.77,474.51,477.24,484.09,484.09,484.09,486.82,486.82,490.93,490.93,503.25,503.25,503.25,503.25,503.25,503.25,503.25,503.25,503.25,503.25,503.25,503.25,503.25,503.25,503.25,503.25,507.35,507.35,507.35,507.35,507.35,507.35,507.35,507.35,507.35,507.35,503.25,503.25,503.25,503.25,503.25,503.25,507.35,507.35,507.35,507.35,507.35,507.35,507.35,507.35,510.09,510.09,510.09,510.09,510.09,510.09,510.09,510.09,510.09,510.09,510.09,510.09,510.09,510.09,510.09,510.09,510.09,510.09,510.09,510.09,510.09,510.09,510.09,510.09,510.09,510.09,507.35,507.35,507.35,507.35,507.35,507.35,507.35,507.35,507.35,503.25,503.25,503.25,503.25,503.25,503.25,503.25,503.25,503.25,503.25,503.25,503.25,503.25,503.25,490.93,490.93,490.93,490.93,490.93,503.25,503.25,503.25,503.25,503.25,503.25,503.25,503.25,503.25,503.25,503.25,503.25,507.35,507.35,507.35,507.35,507.35,507.35,507.35,507.35,507.35,507.35,507.35,507.35,507.35,507.35,507.35,507.35,507.35,507.35,507.35,507.35,507.35,503.25,503.25,503.25,503.25,503.25,503.25,503.25,503.25,503.25,503.25,503.25,503.25,503.25,503.25,503.25,503.25,503.25,503.25,503.25,503.25,503.25,503.25
281.53,281.53,281.53,281.53,281.53,281.53,281.53,281.53,281.53,281.53,281.53,281.53,281.53,281.53,281.53,281.53,281.53,281.53,281.53,281.53,281.53,281.53,281.53,281.53,281.53,281.53,281.53,281.53,281.53,281.53,281.53,281.53,281.53,281.53,281.53,281.53,281.53,281.53,281.53,281.53,281.53,281.53,281.53,281.53,281.53,281.53,281.53,281.53,281.53,281.53,281.53,281.53,281.53,281.53,281.53,281.53,281.53,281.53,281.53,281.53,281.53,281.53,281.53,281.53,281.53,281.53,281.53,281.53,281.53,281.53,281.53,281.53,281.53,281.53,281.53,281.53,281.53,281.53,281.53,281.53,281.53,281.53,282.90,282.90,282.90,282.90,282.90,282.90,282.90,282.90,284.27,284.27,284.27,284.27,284.27,285.64,285.64,285.64,285.64,285.64,287.00,287.00,287.00,287.00,287.00,288.37,288.37,288.37,288.37,288.37,288.37,288.37,288.37,288.37,289.74,289.74,289.74,289.74,289.74,289.74,289.74,289.74,289.74,291.11,291.11,291.11,291.11,292.48,292.48,292.48,293.85,293.85,293.85,293.85,293.85,293.85,295.22,295.22,295.22,296.58,296.58,296.58,296.58,296.58,296.58,296.58,296.58,297.95,297.95,297.95,297.95,299.32,299.32,300.69,300.69,300.69,300.69,300.69,300.69,307.53,307.53,307.53,307.53,307.53,310.27,313.01,319.85,319.85,319.85,319.85,323.96,323.96,323.96,329.43,329.43,329.43,329.43,333.54,333.54,333.54,339.01,339.01,343.12,343.12,345.85,348.59,348.59,348.59,348.59,352.70,352.70,355.44,358.17,358.17,358.17,362.28,365.02,365.02,365.02,365.02,367.75,371.86,371.86,374.60,374.60,377.33,377.33,377.33,384.18,384.18,384.18,384.18,384.18,384.18,384.18,391.02,391.02,391.02,391.02,393.76,393.76,393.76,400.60,400.60,400.60,400.60,400.60,403.34,403.34,407.44,407.44,410.18,410.18,412.92,417.02,419.76,419.76,422.50,422.50,422.50,422.50,426.60,432.08,432.08,432.08,432.08,436.18,441.66,441.66,441.66,441.66,441.66,448.50,448.50,451.24,451.24,451.24,451.24,458.08,458.08,458.08,460.82,464.93,464.93,464.93,467.66,471.77,471.77,474.51,477.24,477.24,477.24,484.09,484.09,484.09,486.82,490.93,490.93,490.93,490.93,503.25,503.25,503.25,503.25,503.25,503.25,503.25,503.25,503.25,503.25,503.25,503.25,503.25,503.25,503.25,503.25,503.25,503.25,503.25,503.25,503.25,503.25,503.25,503.25,503.25,503.25,503.25,503.25,503.25,507.35,507.35,507.35,507.35,507.35,507.35,507.35,507.35,510.09,510.09,510.09,510.09,510.09,510.09,510.09,510.09,510.09,510.09,510.09,510.09,510.09,510.09,510.09,510.09,510.09,510.09,510.09,510.09,510.09,510.09,510.09,503.25,503.25,503.25,503.25,503.25,503.25,503.25,503.25,503.25,503.25,503.25,503.25,503.25,503.25,503.25,503.25,503.25,503.25,503.25,490.93,490.93,490.93,490.93,490.93,490.93,490.93,490.93,490.93,490.93,490.93,490.93,490.93,490.93,490.93,490.93,490.93,503.25,503.25,503.25,503.25,503.25,503.25,503.25,503.25,503.25,503.25,503.25,503.25,503.25,503.25,503.25,503.25,503.25,503.25,503.25,503.25,503.25,503.25,503.25,503.25,503.25,503.25,503.25,503.25,503.25,503.25,503.25,503.25,503.25,503.25,503.25,503.25,503.25,503.25,503.25,490.93,490.93,490.93,490.93,490.93,490.93,490.93,490.93,490.93,490.93,490.93
281.53,281.53,281.53,281.53,281.53,281.53,281.53,281.53,281.53,281.53,281.53,281.53,281.53,281.53,281.53,281.53,281.53,281.53,281.53,281.53,281.53,281.53,281.53,281.53,281.53,281.53,281.53,281.53,281.53,281.53,281.53,281.53,281.53,281.53,281.53,281.53,281.53,281.53,281.53,281.53,281.53,281.53,281.53,281.53,281.53,281.53,281.53,281.53,281.53,281.53,281.53,281.53,281.53,281.53,281.53,281.53,281.53,281.53,281.53,281.53,281.53,281.53,281.53,281.53,281.53,281.53,281.53,281.53,281.53,281.53,281.53,281.53,281.53,281.53,281.53,281.53,281.53,281.53,281.53,281.53,281.53,281.53,282.90,282.90,282.90,282.90,282.90,282.90,282.90,282.90,284.27,284.27,284.27,284.27,284.27,285.64,285.64,285.64,285.64,285.64,287.00,287.00,287.00,287.00,287.00,288.37,288.37,288.37,288.37,288.37,288.37,288.37,288.37,288.37,289.74,289.74,289.74,289.74,289.74,289.74,289.74,289.74,291.11,291.11,291.11,291.11,291.11,292.48,292.48,292.48,293.85,293.85,293.85,293.85,293.85,293.85,295.22,295.22,295.22,296.58,296.58,296.58,296.58,296.58,296.58,296.58,296.58,297.95,297.95,297.95,297.95,299.32,299.32,300.69,300.69,300.69,300.69,300.69,300.69,307.53,307.53,307.53,307.53,307.53,310.27,313.01,313.01,313.01,319.85,319.85,323.96,323.96,323.96,329.43,329.43,329.43,329.43,333.54,333.54,333.54,339.01,339.01,343.12,343.12,345.85,348.59,348.59,348.59,348.59,352.70,352.70,355.44,358.17,358.17,358.17,358.17,362.28,365.02,365.02,365.02,367.75,371.86,371.86,374.60,374.60,377.33,377.33,377.33,384.18,384.18,384.18,384.18,384.18,384.18,384.18,391.02,391.02,391.02,391.02,393.76,400.60,400.60,400.60,400.60,400.60,400.60,400.60,403.34,403.34,407.44,407.44,410.18,410.18,412.92,417.02,419.76,419.76,422.50,422.50,422.50,422.50,426.60,432.08,432.08,432.08,432.08,436.18,441.66,441.66,441.66,441.66,441.66,448.50,448.50,451.24,451.24,451.24,451.24,458.08,458.08,458.08,458.08,460.82,460.82,464.93,464.93,464.93,471.77,474.51,474.51,474.51,477.24,477.24,484.09,484.09,484.09,486.82,486.82,486.82,486.82,486.82,486.82,490.93,490.93,490.93,490.93,490.93,490.93,490.93,490.93,490.93,490.93,490.93,503.25,503.25,503.25,503.25,503.25,503.25,503.25,503.25,503.25,503.25,503.25,503.25,503.25,503.25,503.25,503.25,503.25,503.25,503.25,503.25,503.25,503.25,503.25,507.35,507.35,507.35,507.35,507.35,507.35,507.35,507.35,507.35,507.35,507.35,507.35,507.35,507.35,507.35,507.35,507.35,503.25,503.25,503.25,503.25,503.25,503.25,503.25,503.25,503.25,503.25,503.25,503.25,503.25,503.25,503.25,503.25,503.25,503.25,503.25,503.25,503.25,503.25,503.25,503.25,503.25,503.25,490.93,490.93,490.93,490.93,490.93,490.93,490.93,490.93,490.93,490.93,490.93,490.93,490.93,490.93,490.93,490.93,490.93,503.25,503.25,490.93,490.93,490.93,503.25,503.25,503.25,503.25,503.25,503.25,503.25,503.25,503.25,503.25,503.25,503.25,503.25,503.25,503.25,503.25,503.25,503.25,503.25,503.25,503.25,503.25,503.25,503.25,503.25,503.25,503.25,490.93,490.93,490.93,490.93,490.93,490.93,490.93,486.82,486.82,486.82,486.82,486.82,486.82,486.82,486.82,486.82,486.82,486.82
281.53,281.53,281.53,281.53,281.53,281.53,281.53,281.53,281.53,281.53,281.53,281.53,281.53,281.53,281.53,281.53,281.53,281.53,281.53,281.53,280.16,281.53,281.53,281.53,281.53,281.53,281.53,281.53,281.53,281.53,281.53,281.53,281.53,281.53,281.53,281.53,281.53,281.53,281.53,281.53,281.53,281.53,281.53,281.53,281.53,281.53,281.53,281.53,281.53,281.53,281.53,281.53,281.53,281.53,281.53,281.53,281.53,281.53,281.53,281.53,281.53,281.53,281.53,281.53,281.53,281.53,281.53,281.53,281.53,281.53,281.53,281.53,281.53,281.53,281.53,281.53,281.53,281.53,281.53,281.53,281.53,281.53,282.90,282.90,282.90,282.90,282.90,282.90,282.90,282.90,284.27,284.27,284.27,284.27,284.27,285.64,285.64,285.64,285.64,285.64,287.00,287.00,287.00,287.00,287.00,288.37,288.37,288.37,288.37,288.37,288.37,288.37,288.37,288.37,289.74,289.74,289.74,289.74,289.74,289.74,289.74,289.74,289.74,291.11,291.11,291.11,291.11,292.48,292.48,292.48,293.85,293.85,293.85,293.85,293.85,293.85,295.22,295.22,295.22,296.58,296.58,296.58,296.58,296.58,296.58,296.58,297.95,297.95,297.95,297.95,299.32,299.32,299.32,300.69,300.69,300.69,300.69,300.69,300.69,307.53,307.53,307.53,307.53,307.53,310.27,313.01,313.01,313.01,319.85,319.85,319.85,319.85,323.96,323.96,329.43,329.43,329.43,333.54,333.54,333.54,339.01,339.01,343.12,343.12,345.85,348.59,348.59,348.59,352.70,352.70,352.70,355.44,358.17,358.17,358.17,358.17,362.28,362.28,362.28,365.02,365.02,367.75,367.75,371.86,374.60,374.60,374.60,377.33,384.18,384.18,384.18,384.18,384.18,384.18,391.02,391.02,391.02,391.02,391.02,393.76,400.60,400.60,400.60,400.60,400.60,400.60,400.60,403.34,403.34,407.44,407.44,410.18,410.18,412.92,417.02,419.76,419.76,422.50,422.50,422.50,422.50,426.60,432.08,432.08,432.08,432.08,436.18,441.66,441.66,441.66,441.66,441.66,448.50,448.50,451.24,451.24,451.24,451.24,458.08,458.08,458.08,458.08,460.82,460.82,464.93,464.93,464.93,471.77,474.51,474.51,474.51,477.24,477.24,484.09,484.09,484.09,486.82,486.82,486.82,486.82,486.82,486.82,490.93,490.93,490.93,490.93,490.93,490.93,490.93,490.93,490.93,490.93,490.93,490.93,490.93,490.93,490.93,490.93,490.93,490.93,490.93,490.93,490.93,490.93,490.93,490.93,490.93,503.25,503.25,503.25,503.25,503.25,503.25,503.25,503.25,503.25,503.25,503.25,503.25,503.25,503.25,503.25,503.25,503.25,503.25,503.25,503.25,503.25,503.25,503.25,503.25,503.25,503.25,503.25,503.25,503.25,503.25,503.25,503.25,503.25,503.25,503.25,503.25,503.25,503.25,503.25,503.25,503.25,503.25,503.25,490.93,490.93,490.93,490.93,490.93,490.93,490.93,490.93,490.93,490.93,490.93,490.93,490.93,490.93,490.93,486.82,486.82,486.82,486.82,486.82,490.93,490.93,490.93,490.93,490.93,490.93,490.93,490.93,490.93,490.93,490.93,503.25,503.25,503.25,503.25,503.25,503.25,503.25,503.25,503.25,503.25,503.25,503.25,503.25,503.25,503.25,503.25,503.25,503.25,503.25,503.25,503.25,503.25,503.25,503.25,503.25,503.25,503.25,490.93,490.93,490.93,490.93,490.93,490.93,490.93,484.09,484.09,484.09,484.09,484.09,484.09,484.09,484.09,484.09,484.09,484.09
281.53,281.53,281.53,281.53,281.53,281.53,281.53,281.53,281.53,281.53,281.53,281.53,281.53,281.53,281.53,281.53,281.53,281.53,280.16,281.53,281.53,280.16,281.53,281.53,281.53,281.53,281.53,281.53,281.53,281.53,281.53,281.53,281.53,281.53,281.53,281.53,281.53,281.53,281.53,281.53,281.53,281.53,281.53,281.53,281.53,281.53,281.53,281.53,281.53,281.53,281.53,281.53,281.53,281.53,281.53,281.53,281.53,281.53,281.53,281.53,281.53,281.53,281.53,281.53,281.53,281.53,281.53,281.53,281.53,281.53,281.53,281.53,281.53,281.53,281.53,281.53,281.53,281.53,281.53,281.53,281.53,281.53,282.90,282.90,282.90,282.90,282.90,282.90,282.90,282.90,284.27,284.27,284.27,284.27,284.27,285.64,285.64,285.64,285.64,285.64,287.00,287.00,287.00,287.00,287.00,288.37,288.37,288.37,288.37,288.37,288.37,288.37,288.37,288.37,288.37,289.74,289.74,289.74,289.74,289.74,289.74,289.74,289.74,291.11,291.11,291.11,291.11,291.11,292.48,292.48,293.85,293.85,293.85,293.85,293.85,293.85,293.85,293.85,295.22,296.58,296.58,296.58,296.58,296.58,296.58,296.58,297.95,297.95,297.95,297.95,299.32,299.32,299.32,300.69,300.69,300.69,300.69,300.69,300.69,307.53,307.53,307.53,307.53,307.53,310.27,313.01,313.01,313.01,319.85,319.85,319.85,319.85,323.96,323.96,329.43,329.43,329.43,333.54,333.54,333.54,339.01,339.01,343.12,343.12,345.85,348.59,348.59,348.59,352.70,355.44,355.44,355.44,358.17,358.17,358.17,358.17,362.28,362.28,362.28,365.02,365.02,367.75,367.75,371.86,374.60,374.60,374.60,377.33,377.33,377.33,384.18,384.18,384.18,384.18,391.02,391.02,391.02,391.02,391.02,393.76,400.60,400.60,400.60,400.60,400.60,400.60,400.60,403.34,403.34,407.44,407.44,410.18,410.18,412.92,417.02,419.76,419.76,422.50,422.50,422.50,422.50,426.60,432.08,432.08,432.08,432.08,436.18,441.66,441.66,441.66,441.66,441.66,448.50,448.50,448.50,448.50,451.24,451.24,458.08,458.08,458.08,458.08,460.82,460.82,464.93,464.93,464.93,467.66,471.77,474.51,474.51,474.51,477.24,477.24,477.24,484.09,484.09,484.09,484.09,484.09,486.82,486.82,486.82,486.82,486.82,486.82,486.82,486.82,486.82,486.82,490.93,490.93,490.93,490.93,490.93,490.93,490.93,490.93,490.93,490.93,490.93,490.93,490.93,490.93,490.93,490.93,490.93,503.25,503.25,503.25,503.25,503.25,503.25,503.25,503.25,503.25,503.25,503.25,503.25,503.25,503.25,503.25,503.25,503.25,503.25,503.25,503.25,503.25,503.25,503.25,503.25,503.25,490.93,490.93,490.93,490.93,490.93,490.93,490.93,490.93,490.93,490.93,490.93,490.93,490.93,490.93,490.93,490.93,490.93,490.93,490.93,486.82,486.82,486.82,486.82,486.82,486.82,486.82,486.82,486.82,486.82,486.82,486.82,486.82,486.82,486.82,486.82,486.82,486.82,486.82,486.82,486.82,486.82,486.82,486.82,486.82,486.82,486.82,486.82,490.93,490.93,490.93,490.93,490.93,490.93,490.93,490.93,490.93,490.93,490.93,490.93,490.93,490.93,490.93,490.93,490.93,490.93,490.93,490.93,490.93,490.93,490.93,490.93,490.93,490.93,490.93,490.93,490.93,490.93,486.82,486.82,486.82,486.82,486.82,486.82,484.09,484.09,484.09,484.09,484.09,484.09,484.09,484.09,484.09,484.09,484.09
281.53,281.53,281.53,281.53,281.53,281.53,281.53,281.53,281.53,281.53,281.53,281.53,281.53,281.53,281.53,281.53,281.53,281.53,281.53,281.53,281.53,281.53,281.53,280.16,281.53,281.53,281.53,281.53,281.53,281.53,281.53,281.53,281.53,281.53,281.53,281.53,281.53,281.53,281.53,281.53,281.53,281.53,281.53,281.53,281.53,281.53,281.53,281.53,281.53,281.53,281.53,281.53,281.53,281.53,281.53,281.53,281.53,281.53,281.53,281.53,281.53,281.53,281.53,281.53,281.53,281.53,281.53,281.53,281.53,281.53,281.53,281.53,281.53,281.53,281.53,281.53,281.53,281.53,281.53,281.53,282.90,282.90,282.90,282.90,282.90,282.90,282.90,282.90,282.90,282.90,284.27,284.27,284.27,284.27,284.27,285.64,285.64,285.64,285.64,285.64,287.00,287.00,287.00,287.00,287.00,288.37,288.37,288.37,288.37,288.37,288.37,288.37,288.37,288.37,288.37,289.74,289.74,289.74,289.74,289.74,289.74,289.74,289.74,291.11,291.11,291.11,291.11,291.11,292.48,292.48,293.85,293.85,293.85,293.85,293.85,293.85,293.85,293.85,295.22,296.58,296.58,296.58,296.58,296.58,296.58,296.58,297.95,297.95,297.95,297.95,299.32,299.32,299.32,300.69,300.69,300.69,300.69,300.69,300.69,307.53,307.53,307.53,307.53,307.53,310.27,310.27,313.01,313.01,319.85,319.85,319.85,319.85,323.96,323.96,329.43,329.43,329.43,333.54,333.54,333.54,339.01,339.01,343.12,343.12,345.85,348.59,348.59,348.59,352.70,355.44,355.44,355.44,358.17,358.17,358.17,358.17,362.28,362.28,362.28,365.02,365.02,367.75,367.75,371.86,374.60,374.60,374.60,377.33,377.33,377.33,384.18,384.18,384.18,384.18,391.02,391.02,391.02,391.02,391.02,393.76,400.60,400.60,400.60,400.60,400.60,400.60,400.60,403.34,403.34,407.44,407.44,410.18,410.18,417.02,417.02,419.76,419.76,422.50,422.50,422.50,422.50,426.60,432.08,432.08,432.08,432.08,436.18,441.66,441.66,441.66,441.66,441.66,441.66,448.50,448.50,448.50,451.24,451.24,451.24,451.24,458.08,458.08,458.08,458.08,464.93,464.93,464.93,467.66,471.77,474.51,474.51,474.51,474.51,477.24,477.24,484.09,484.09,484.09,484.09,484.09,484.09,484.09,484.09,484.09,484.09,484.09,484.09,484.09,484.09,484.09,486.82,486.82,486.82,486.82,486.82,486.82,486.82,486.82,486.82,486.82,486.82,486.82,486.82,486.82,486.82,486.82,490.93,490.93,490.93,490.93,490.93,490.93,490.93,490.93,503.25,503.25,503.25,503.25,503.25,503.25,503.25,503.25,503.25,503.25,503.25,503.25,503.25,503.25,503.25,503.25,503.25,503.25,490.93,490.93,490.93,490.93,490.93,490.93,490.93,490.93,490.93,490.93,490.93,490.93,490.93,490.93,490.93,490.93,490.93,490.93,490.93,486.82,486.82,486.82,486.82,486.82,486.82,486.82,486.82,486.82,486.82,486.82,486.82,484.09,484.09,484.09,484.09,484.09,484.09,484.09,484.09,484.09,484.09,484.09,484.09,484.09,484.09,484.09,484.09,486.82,486.82,486.82,486.82,486.82,486.82,486.82,486.82,486.82,486.82,486.82,486.82,486.82,486.82,486.82,490.93,490.93,490.93,490.93,490.93,490.93,490.93,490.93,490.93,490.93,490.93,490.93,490.93,490.93,490.93,486.82,486.82,486.82,486.82,484.09,484.09,484.09,484.09,484.09,484.09,484.09,484.09,484.09,484.09,484.09,484.09,484.09
281.53,281.53,281.53,281.53,281.53,281.53,281.53,281.53,281.53,281.53,281.53,281.53,281.53,281.53,281.53,281.53,281.53,281.53,281.53,281.53,281.53,281.53,281.53,281.53,281.53,281.53,281.53,281.53,281.53,281.53,281.53,281.53,281.53,281.53,281.53,281.53,281.53,281.53,281.53,281.53,281.53,281.53,281.53,281.53,281.53,281.53,281.53,281.53,281.53,281.53,281.53,281.53,281.53,281.53,281.53,281.53,281.53,281.53,281.53,281.53,281.53,281.53,281.53,281.53,281.53,281.53,281.53,281.53,281.53,281.53,281.53,281.53,281.53,281.53,281.53,281.53,281.53,281.53,281.53,281.53,282.90,282.90,282.90,282.90,282.90,282.90,282.90,282.90,282.90,282.90,284.27,284.27,284.27,284.27,284.27,285.64,285.64,285.64,285.64,285.64,287.00,287.00,287.00,287.00,287.00,288.37,288.37,288.37,288.37,288.37,288.37,288.37,288.37,288.37,289.74,289.74,289.74,289.74,289.74,289.74,289.74,289.74,289.74,291.11,291.11,291.11,291.11,291.11,292.48,292.48,293.85,293.85,293.85,293.85,293.85,293.85,293.85,293.85,295.22,296.58,296.58,296.58,296.58,296.58,296.58,296.58,297.95,297.95,297.95,297.95,299.32,299.32,299.32,300.69,300.69,300.69,300.69,300.69,300.69,300.69,307.53,307.53,307.53,307.53,310.27,310.27,313.01,313.01,319.85,319.85,319.85,319.85,323.96,329.43,329.43,329.43,329.43,333.54,333.54,333.54,339.01,339.01,343.12,343.12,345.85,348.59,348.59,348.59,352.70,355.44,355.44,355.44,358.17,358.17,358.17,358.17,362.28,362.28,362.28,365.02,365.02,367.75,367.75,371.86,374.60,374.60,374.60,377.33,377.33,377.33,384.18,384.18,384.18,384.18,391.02,391.02,391.02,391.02,391.02,393.76,400.60,400.60,400.60,400.60,400.60,400.60,400.60,403.34,403.34,407.44,407.44,410.18,410.18,417.02,417.02,419.76,419.76,422.50,422.50,422.50,422.50,426.60,432.08,432.08,432.08,432.08,436.18,441.66,441.66,441.66,441.66,441.66,441.66,448.50,448.50,448.50,451.24,451.24,451.24,451.24,458.08,458.08,458.08,458.08,464.93,464.93,464.93,467.66,471.77,474.51,474.51,474.51,474.51,477.24,477.24,484.09,484.09,484.09,484.09,484.09,484.09,484.09,484.09,484.09,484.09,484.09,484.09,484.09,484.09,484.09,484.09,484.09,484.09,484.09,484.09,484.09,484.09,484.09,484.09,484.09,484.09,484.09,484.09,484.09,484.09,486.82,486.82,486.82,486.82,486.82,486.82,486.82,490.93,490.93,490.93,490.93,490.93,490.93,490.93,490.93,490.93,490.93,490.93,490.93,490.93,490.93,490.93,490.93,490.93,490.93,490.93,490.93,490.93,486.82,486.82,486.82,486.82,486.82,486.82,486.82,486.82,486.82,486.82,486.82,486.82,486.82,486.82,486.82,486.82,486.82,486.82,484.09,484.09,484.09,484.09,484.09,484.09,484.09,484.09,484.09,484.09,484.09,484.09,484.09,484.09,484.09,484.09,484.09,484.09,484.09,484.09,484.09,484.09,484.09,484.09,484.09,484.09,484.09,484.09,486.82,486.82,486.82,486.82,486.82,486.82,486.82,486.82,486.82,486.82,486.82,486.82,486.82,486.82,486.82,490.93,490.93,490.93,490.93,490.93,490.93,490.93,490.93,490.93,490.93,490.93,490.93,490.93,490.93,486.82,486.82,486.82,486.82,484.09,484.09,484.09,484.09,484.09,484.09,484.09,484.09,484.09,484.09,484.09,484.09,484.09,484.09
281.53,281.53,281.53,281.53,281.53,281.53,281.53,281.53,281.53,281.53,281.53,281.53,281.53,281.53,281.53,281.53,281.53,281.53,281.53,281.53,281.53,281.53,281.53,281.53,281.53,281.53,281.53,281.53,281.53,281.53,281.53,281.53,281.53,281.53,280.16,281.53,281.53,281.53,281.53,281.53,281.53,281.53,281.53,281.53,281.53,281.53,281.53,281.53,281.53,281.53,281.53,281.53,281.53,281.53,281.53,281.53,281.53,281.53,281.53,281.53,281.53,281.53,281.53,281.53,281.53,281.53,281.53,281.53,281.53,281.53,281.53,281.53,281.53,281.53,281.53,281.53,281.53,281.53,281.53,281.53,282.90,282.90,282.90,282.90,282.90,282.90,282.90,282.90,282.90,282.90,284.27,284.27,284.27,284.27,284.27,285.64,285.64,285.64,285.64,285.64,287.00,287.00,287.00,287.00,287.00,288.37,288.37,288.37,288.37,288.37,288.37,288.37,288.37,288.37,288.37,289.74,289.74,289.74,289.74,289.74,289.74,289.74,289.74,289.74,291.11,291.11,291.11,291.11,292.48,292.48,292.48,293.85,293.85,293.85,293.85,293.85,293.85,293.85,295.22,296.58,296.58,296.58,296.58,296.58,296.58,296.58,297.95,297.95,297.95,297.95,299.32,299.32,299.32,300.69,300.69,300.69,300.69,300.69,300.69,300.69,307.53,307.53,307.53,307.53,310.27,310.27,313.01,313.01,319.85,319.85,319.85,319.85,323.96,329.43,329.43,329.43,329.43,333.54,333.54,333.54,339.01,343.12,345.85,345.85,348.59,348.59,352.70,352.70,352.70,355.44,355.44,355.44,358.17,358.17,358.17,358.17,362.28,362.28,362.28,365.02,365.02,365.02,367.75,367.75,371.86,371.86,374.60,377.33,377.33,377.33,384.18,384.18,384.18,384.18,391.02,391.02,391.02,391.02,391.02,393.76,400.60,400.60,400.60,400.60,400.60,400.60,400.60,403.34,403.34,407.44,407.44,412.92,412.92,417.02,417.02,422.50,422.50,422.50,422.50,422.50,422.50,426.60,432.08,432.08,432.08,432.08,436.18,436.18,436.18,441.66,441.66,441.66,441.66,448.50,448.50,448.50,448.50,451.24,451.24,451.24,458.08,458.08,458.08,458.08,460.82,464.93,464.93,464.93,467.66,471.77,471.77,474.51,474.51,477.24,477.24,477.24,484.09,484.09,484.09,484.09,484.09,484.09,484.09,484.09,484.09,484.09,484.09,484.09,484.09,484.09,484.09,484.09,484.09,484.09,484.09,484.09,484.09,484.09,484.09,484.09,484.09,484.09,484.09,484.09,484.09,486.82,486.82,486.82,486.82,486.82,486.82,486.82,490.93,490.93,486.82,486.82,486.82,486.82,486.82,486.82,486.82,486.82,486.82,486.82,486.82,486.82,486.82,486.82,486.82,486.82,486.82,486.82,486.82,486.82,486.82,486.82,486.82,486.82,486.82,486.82,486.82,486.82,486.82,486.82,484.09,484.09,484.09,484.09,484.09,484.09,484.09,484.09,484.09,484.09,484.09,484.09,484.09,484.09,484.09,484.09,484.09,484.09,484.09,484.09,484.09,484.09,484.09,484.09,484.09,484.09,484.09,484.09,484.09,484.09,484.09,484.09,484.09,484.09,484.09,484.09,484.09,484.09,484.09,484.09,484.09,484.09,484.09,484.09,484.09,484.09,486.82,486.82,486.82,486.82,486.82,486.82,486.82,486.82,486.82,490.93,490.93,490.93,490.93,490.93,490.93,490.93,490.93,490.93,486.82,486.82,486.82,486.82,484.09,484.09,484.09,484.09,484.09,484.09,484.09,484.09,484.09,484.09,484.09,484.09,484.09,484.09
281.53,281.53,281.53,281.53,281.53,281.53,281.53,281.53,281.53,281.53,281.53,281.53,281.53,281.53,281.53,281.53,281.53,281.53,281.53,281.53,281.53,281.53,281.53,281.53,281.53,281.53,281.53,281.53,281.53,280.16,281.53,281.53,281.53,281.53,281.53,281.53,281.53,281.53,281.53,281.53,281.53,281.53,281.53,281.53,281.53,281.53,281.53,281.53,281.53,281.53,281.53,281.53,281.53,281.53,281.53,281.53,281.53,281.53,281.53,281.53,281.53,281.53,281.53,281.53,281.53,281.53,281.53,281.53,281.53,281.53,281.53,281.53,281.53,281.53,281.53,281.53,281.53,281.53,281.53,281.53,282.90,282.90,282.90,282.90,282.90,282.90,282.90,282.90,282.90,282.90,284.27,284.27,284.27,284.27,284.27,285.64,285.64,285.64,285.64,285.64,287.00,287.00,287.00,287.00,287.00,287.00,287.00,288.37,288.37,288.37,288.37,288.37,288.37,288.37,288.37,289.74,289.74,289.74,289.74,289.74,289.74,289.74,289.74,289.74,289.74,291.11,291.11,291.11,291.11,291.11,292.48,293.85,293.85,293.85,293.85,293.85,293.85,293.85,295.22,296.58,296.58,296.58,296.58,296.58,296.58,296.58,296.58,297.95,297.95,297.95,299.32,299.32,299.32,300.69,300.69,300.69,300.69,300.69,300.69,300.69,307.53,307.53,307.53,307.53,310.27,310.27,313.01,313.01,319.85,319.85,319.85,319.85,323.96,329.43,329.43,329.43,329.43,333.54,333.54,333.54,339.01,343.12,345.85,345.85,348.59,348.59,352.70,352.70,355.44,355.44,355.44,358.17,358.17,358.17,358.17,358.17,362.28,362.28,362.28,365.02,365.02,365.02,367.75,367.75,371.86,371.86,374.60,377.33,377.33,377.33,384.18,384.18,384.18,384.18,391.02,391.02,391.02,391.02,393.76,393.76,400.60,400.60,400.60,400.60,400.60,400.60,400.60,403.34,403.34,407.44,410.18,412.92,412.92,417.02,419.76,422.50,422.50,422.50,422.50,422.50,422.50,426.60,432.08,432.08,432.08,432.08,432.08,432.08,436.18,441.66,441.66,441.66,441.66,441.66,448.50,448.50,448.50,448.50,448.50,451.24,451.24,458.08,458.08,458.08,458.08,460.82,460.82,464.93,467.66,467.66,467.66,471.77,474.51,474.51,474.51,477.24,484.09,484.09,484.09,484.09,484.09,484.09,484.09,484.09,484.09,484.09,484.09,484.09,484.09,484.09,484.09,484.09,484.09,484.09,484.09,484.09,484.09,484.09,484.09,484.09,484.09,484.09,484.09,484.09,484.09,484.09,484.09,484.09,484.09,486.82,486.82,486.82,486.82,486.82,486.82,486.82,486.82,486.82,486.82,486.82,486.82,486.82,486.82,486.82,486.82,486.82,486.82,486.82,486.82,486.82,486.82,486.82,486.82,486.82,486.82,486.82,486.82,486.82,486.82,486.82,486.82,486.82,486.82,486.82,484.09,484.09,484.09,484.09,484.09,484.09,484.09,484.09,484.09,484.09,484.09,484.09,484.09,484.09,484.09,484.09,484.09,484.09,484.09,484.09,484.09,484.09,477.24,477.24,477.24,484.09,484.09,484.09,484.09,484.09,484.09,484.09,484.09,484.09,484.09,484.09,484.09,484.09,484.09,484.09,484.09,484.09,484.09,484.09,484.09,484.09,486.82,486.82,486.82,486.82,486.82,486.82,486.82,486.82,486.82,490.93,490.93,490.93,490.93,490.93,490.93,490.93,490.93,490.93,486.82,486.82,486.82,486.82,484.09,484.09,484.09,484.09,484.09,484.09,484.09,484.09,484.09,484.09,484.09,484.09,484.09,484.09
281.53,281.53,281.53,281.53,281.53,281.53,281.53,281.53,281.53,281.53,281.53,281.53,281.53,281.53,281.53,281.53,281.53,281.53,281.53,281.53,281.53,281.53,281.53,281.53,281.53,281.53,281.53,281.53,281.53,281.53,281.53,281.53,281.53,281.53,280.16,280.16,281.53,281.53,281.53,281.53,281.53,281.53,281.53,281.53,281.53,281.53,281.53,281.53,281.53,281.53,281.53,281.53,281.53,281.53,281.53,281.53,281.53,281.53,281.53,281.53,281.53,281.53,281.53,281.53,281.53,281.53,281.53,281.53,281.53,281.53,281.53,281.53,281.53,281.53,281.53,281.53,281.53,281.53,281.53,281.53,282.90,282.90,282.90,282.90,282.90,282.90,282.90,282.90,282.90,282.90,284.27,284.27,284.27,284.27,284.27,284.27,285.64,285.64,285.64,285.64,287.00,287.00,287.00,287.00,287.00,287.00,287.00,288.37,288.37,288.37,288.37,288.37,288.37,288.37,288.37,289.74,289.74,289.74,289.74,289.74,289.74,289.74,289.74,289.74,289.74,291.11,291.11,291.11,291.11,291.11,292.48,293.85,293.85,293.85,293.85,293.85,293.85,293.85,295.22,295.22,295.22,296.58,296.58,296.58,296.58,296.58,296.58,297.95,297.95,297.95,299.32,299.32,299.32,300.69,300.69,300.69,300.69,300.69,300.69,300.69,307.53,307.53,307.53,307.53,310.27,310.27,313.01,313.01,319.85,319.85,319.85,319.85,323.96,329.43,329.43,329.43,329.43,333.54,333.54,339.01,339.01,343.12,345.85,345.85,348.59,348.59,352.70,352.70,355.44,355.44,355.44,358.17,358.17,358.17,358.17,358.17,362.28,362.28,362.28,365.02,365.02,365.02,367.75,367.75,371.86,371.86,374.60,377.33,377.33,377.33,384.18,384.18,384.18,384.18,391.02,391.02,391.02,391.02,393.76,393.76,400.60,400.60,400.60,400.60,400.60,400.60,400.60,403.34,403.34,407.44,410.18,412.92,412.92,417.02,419.76,422.50,422.50,422.50,422.50,426.60,426.60,426.60,432.08,432.08,432.08,432.08,432.08,432.08,436.18,441.66,441.66,441.66,441.66,441.66,448.50,448.50,448.50,448.50,448.50,451.24,451.24,458.08,458.08,458.08,458.08,460.82,460.82,464.93,464.93,467.66,467.66,471.77,474.51,474.51,474.51,474.51,477.24,477.24,477.24,477.24,477.24,477.24,477.24,484.09,484.09,484.09,484.09,484.09,486.82,486.82,486.82,486.82,484.09,484.09,484.09,484.09,484.09,484.09,484.09,484.09,484.09,484.09,484.09,484.09,484.09,484.09,484.09,484.09,484.09,486.82,486.82,486.82,486.82,486.82,486.82,486.82,486.82,486.82,486.82,486.82,486.82,486.82,486.82,486.82,486.82,486.82,486.82,486.82,486.82,486.82,486.82,486.82,486.82,486.82,486.82,486.82,486.82,486.82,486.82,484.09,484.09,484.09,484.09,484.09,484.09,484.09,484.09,484.09,484.09,484.09,484.09,484.09,484.09,484.09,484.09,484.09,484.09,484.09,484.09,484.09,484.09,484.09,484.09,484.09,484.09,484.09,477.24,477.24,477.24,484.09,484.09,484.09,484.09,484.09,484.09,484.09,484.09,484.09,484.09,484.09,484.09,484.09,484.09,484.09,484.09,484.09,484.09,486.82,484.09,484.09,484.09,484.09,490.93,503.25,503.25,503.25,503.25,503.25,503.25,503.25,503.25,503.25,490.93,490.93,490.93,490.93,490.93,490.93,490.93,490.93,486.82,486.82,486.82,486.82,486.82,484.09,484.09,486.82,486.82,484.09,484.09,477.24,477.24,477.24,477.24,477.24
281.53,281.53,281.53,281.53,281.53,281.53,281.53,281.53,281.53,281.53,281.53,281.53,281.53,281.53,281.53,281.53,281.53,281.53,281.53,281.53,281.53,281.53,281.53,281.53,281.53,281.53,281.53,281.53,281.53,281.53,281.53,281.53,281.53,281.53,281.53,281.53,281.53,281.53,281.53,281.53,281.53,281.53,281.53,281.53,281.53,281.53,281.53,281.53,281.53,281.53,281.53,281.53,281.53,281.53,281.53,281.53,281.53,281.53,281.53,281.53,281.53,281.53,281.53,281.53,281.53,281.53,281.53,281.53,281.53,281.53,281.53,281.53,281.53,281.53,281.53,281.53,281.53,281.53,281.53,282.90,282.90,282.90,282.90,282.90,282.90,282.90,282.90,282.90,282.90,282.90,284.27,284.27,284.27,284.27,284.27,284.27,285.64,285.64,285.64,285.64,287.00,287.00,287.00,287.00,287.00,287.00,287.00,288.37,288.37,288.37,288.37,288.37,288.37,288.37,288.37,289.74,289.74,289.74,289.74,289.74,289.74,289.74,289.74,289.74,289.74,291.11,291.11,291.11,291.11,291.11,292.48,293.85,293.85,293.85,293.85,293.85,293.85,293.85,295.22,295.22,295.22,296.58,296.58,296.58,296.58,296.58,296.58,297.95,297.95,297.95,299.32,299.32,299.32,300.69,300.69,300.69,300.69,300.69,300.69,300.69,307.53,307.53,307.53,307.53,310.27,310.27,313.01,313.01,319.85,319.85,319.85,319.85,323.96,329.43,329.43,329.43,333.54,333.54,339.01,339.01,339.01,343.12,345.85,345.85,348.59,348.59,352.70,352.70,355.44,355.44,355.44,358.17,358.17,358.17,358.17,358.17,362.28,362.28,362.28,365.02,365.02,365.02,365.02,367.75,371.86,371.86,374.60,374.60,377.33,377.33,384.18,384.18,384.18,384.18,391.02,391.02,391.02,391.02,393.76,393.76,400.60,400.60,400.60,400.60,400.60,400.60,400.60,403.34,403.34,407.44,410.18,412.92,412.92,417.02,417.02,422.50,422.50,422.50,422.50,422.50,422.50,426.60,432.08,432.08,432.08,432.08,432.08,432.08,436.18,441.66,441.66,441.66,441.66,441.66,448.50,448.50,448.50,448.50,448.50,451.24,451.24,458.08,458.08,458.08,458.08,460.82,460.82,464.93,464.93,467.66,467.66,471.77,474.51,474.51,474.51,474.51,477.24,477.24,477.24,477.24,477.24,477.24,477.24,484.09,484.09,484.09,484.09,484.09,503.25,503.25,503.25,503.25,503.25,503.25,490.93,490.93,490.93,490.93,490.93,490.93,490.93,490.93,490.93,503.25,503.25,503.25,503.25,503.25,503.25,503.25,503.25,503.25,484.09,484.09,484.09,484.09,484.09,503.25,503.25,503.25,503.25,503.25,503.25,503.25,503.25,503.25,503.25,503.25,503.25,503.25,503.25,503.25,490.93,490.93,490.93,486.82,486.82,486.82,486.82,484.09,484.09,484.09,484.09,484.09,484.09,484.09,484.09,484.09,484.09,484.09,484.09,484.09,484.09,484.09,484.09,484.09,484.09,484.09,484.09,484.09,484.09,477.24,477.24,484.09,484.09,484.09,477.24,477.24,477.24,484.09,484.09,484.09,477.24,477.24,477.24,477.24,477.24,484.09,484.09,484.09,484.09,484.09,484.09,484.09,484.09,484.09,484.09,484.09,484.09,484.09,484.09,484.09,510.09,510.09,515.56,510.09,510.09,510.09,510.09,510.09,507.35,507.35,507.35,507.35,507.35,507.35,503.25,503.25,507.35,507.35,507.35,507.35,503.25,486.82,486.82,484.09,484.09,486.82,486.82,484.09,484.09,477.24,477.24,477.24,477.24,477.24
