498.02,498.02,498.02,498.02,498.02,494.39,494.39,494.39,494.39,494.39,494.39,494.39,494.39,494.39,494.39,494.39,494.39,494.39,494.39,498.02,498.02,498.02,498.02,500.45,500.45,500.45,505.29,505.29,505.29,505.29,505.29,505.29,505.29,505.29,506.51,506.51,506.51,506.51,506.51,506.51,508.93,508.93,508.93,508.93,508.93,508.93,508.93,508.93,508.93,508.93,508.93,508.93,508.93,508.93,508.93,508.93,508.93,508.93,508.93,506.51,505.29,505.29,500.45,494.39,494.39,491.96,491.96,491.96,481.06,481.06,481.06,481.06,481.06,481.06,481.06,481.06,491.96,491.96,491.96,498.02,498.02,500.45,500.45,505.29,505.29,505.29,506.51,508.93,508.93,508.93,508.93,508.93,508.93,508.93,508.93,508.93,508.93,506.51,506.51,506.51,505.29,505.29,505.29,505.29,505.29,505.29,505.29,500.45,500.45,500.45,498.02,498.02,498.02,494.39,494.39,494.39,491.96,491.96,491.96,491.96,491.96,491.96,481.06,481.06,481.06,466.52,466.52,466.52,458.04,458.04,458.04,445.92,445.92,445.92,445.92,445.92,445.92,445.92,445.92,445.92,445.92,445.92,445.92,458.04,458.04,458.04,458.04,458.04,458.04,466.52,466.52,466.52,466.52,466.52,466.52,466.52,466.52,466.52,466.52,466.52,481.06,481.06,481.06,491.96,491.96,491.96,491.96,491.96,491.96,491.96,491.96,491.96,491.96,491.96,491.96,491.96,494.39,494.39,494.39,494.39,498.02,498.02,494.39,494.39,494.39,494.39,494.39,494.39,491.96,491.96,491.96,491.96,466.52,466.52,437.44,415.62,415.62,415.62,409.56,403.51,401.08,401.08,395.02,395.02,395.02,392.60,390.18,390.18,390.18,386.54,386.54,386.54,384.12,384.12,384.12,380.48,380.48,380.48,380.48,380.48,380.48,375.64,375.64,372.00,369.58,369.58,369.58,367.15,367.15,363.52,361.09,361.09,361.09,355.04,355.04,352.61,352.61,352.61,350.19,350.19,350.19,346.55,346.55,346.55,346.55,346.55,346.55,344.13,341.71,341.71,341.71,341.71,341.71,338.07,335.65,335.65,335.65,333.22,333.22,333.22,329.59,329.59,327.16,327.16,327.16,327.16,321.11,321.11,321.11,321.11,321.11,318.68,318.68,318.68,318.68,318.68,318.68,313.84,312.62,312.62,310.20,306.56,306.56,306.56,306.56,306.56,304.14,302.93,302.93,302.93,302.93,302.93,302.93,301.72,301.72,301.72,301.72,301.72,300.51,300.51,300.51,300.51,300.51,300.51,300.51,300.51,300.51,299.29,299.29,299.29,299.29,299.29,299.29,298.08,298.08,298.08,298.08,296.87,296.87,296.87,295.66,295.66,295.66,295.66,295.66,295.66,295.66,295.66,294.45,294.45,294.45,294.45,294.45,294.45,294.45,294.45,294.45,294.45,293.24,293.24,293.24,293.24,293.24,293.24,293.24,293.24,293.24,292.02,292.02,290.81,290.81,290.81,290.81,289.60,289.60,289.60,289.60,289.60,289.60,289.60,289.60,289.60,289.60,289.60,288.39,288.39,288.39,288.39,288.39,288.39,288.39,288.39,288.39,288.39,288.39,288.39,288.39,288.39,288.39,288.39,288.39,288.39,288.39,287.18,287.18,287.18,287.18,287.18,287.18,287.18,287.18,287.18,287.18,287.18,287.18,287.18,287.18,287.18,287.18,287.18,287.18,287.18,287.18,287.18,287.18,287.18,287.18,287.18,287.18,287.18,287.18,287.18,287.18,287.18,287.18,287.18,287.18,287.18,287.18,287.18,287.18,287.18,287.18,287.18,287.18,287.18
498.02,498.02,498.02,494.39,494.39,494.39,494.39,494.39,494.39,494.39,494.39,494.39,494.39,494.39,494.39,494.39,494.39,498.02,498.02,498.02,498.02,500.45,500.45,500.45,505.29,505.29,505.29,505.29,505.29,505.29,505.29,505.29,505.29,506.51,506.51,506.51,506.51,506.51,508.93,508.93,508.93,508.93,508.93,508.93,508.93,508.93,508.93,508.93,508.93,508.93,508.93,508.93,508.93,508.93,508.93,508.93,508.93,508.93,508.93,506.51,505.29,505.29,500.45,494.39,494.39,491.96,491.96,491.96,481.06,481.06,481.06,481.06,481.06,481.06,481.06,481.06,491.96,494.39,494.39,498.02,498.02,500.45,500.45,505.29,505.29,505.29,506.51,508.93,508.93,508.93,508.93,508.93,508.93,508.93,508.93,508.93,508.93,508.93,508.93,508.93,508.93,508.93,506.51,506.51,505.29,505.29,505.29,505.29,505.29,505.29,505.29,505.29,500.45,500.45,500.45,498.02,494.39,494.39,494.39,491.96,491.96,491.96,491.96,491.96,491.96,481.06,481.06,481.06,466.52,466.52,466.52,458.04,458.04,458.04,458.04,458.04,458.04,458.04,458.04,458.04,458.04,458.04,458.04,466.52,466.52,466.52,466.52,466.52,466.52,466.52,481.06,481.06,481.06,481.06,481.06,481.06,481.06,481.06,481.06,481.06,481.06,481.06,481.06,491.96,491.96,491.96,491.96,491.96,491.96,491.96,491.96,491.96,491.96,491.96,491.96,491.96,494.39,494.39,494.39,494.39,498.02,498.02,494.39,494.39,494.39,494.39,491.96,491.96,491.96,491.96,491.96,481.06,458.04,458.04,437.44,437.44,424.11,414.41,409.56,405.93,403.51,399.87,395.02,395.02,395.02,392.60,392.60,392.60,390.18,386.54,386.54,386.54,384.12,384.12,384.12,380.48,380.48,380.48,380.48,380.48,380.48,375.64,375.64,372.00,369.58,369.58,369.58,367.15,367.15,363.52,361.09,361.09,361.09,355.04,355.04,352.61,352.61,352.61,352.61,350.19,350.19,346.55,346.55,346.55,346.55,344.13,344.13,344.13,341.71,341.71,341.71,341.71,341.71,338.07,335.65,335.65,333.22,333.22,333.22,329.59,327.16,327.16,327.16,327.16,327.16,327.16,321.11,321.11,321.11,321.11,321.11,318.68,318.68,318.68,318.68,318.68,318.68,313.84,312.62,312.62,310.20,306.56,306.56,306.56,306.56,306.56,304.14,302.93,302.93,302.93,302.93,302.93,302.93,301.72,301.72,301.72,300.51,300.51,300.51,300.51,300.51,300.51,300.51,300.51,300.51,300.51,300.51,299.29,299.29,299.29,299.29,299.29,299.29,298.08,298.08,298.08,298.08,296.87,296.87,296.87,295.66,295.66,295.66,295.66,295.66,295.66,295.66,295.66,294.45,294.45,294.45,294.45,294.45,294.45,294.45,294.45,294.45,294.45,293.24,293.24,293.24,293.24,293.24,293.24,293.24,293.24,293.24,292.02,292.02,290.81,290.81,290.81,290.81,289.60,289.60,289.60,289.60,289.60,289.60,289.60,289.60,289.60,289.60,289.60,288.39,288.39,288.39,288.39,288.39,288.39,288.39,288.39,288.39,288.39,288.39,288.39,288.39,288.39,288.39,288.39,288.39,288.39,288.39,287.18,287.18,287.18,287.18,287.18,287.18,287.18,287.18,287.18,287.18,287.18,287.18,287.18,287.18,287.18,287.18,287.18,287.18,287.18,287.18,287.18,287.18,287.18,287.18,287.18,287.18,287.18,287.18,287.18,287.18,287.18,287.18,287.18,287.18,287.18,287.18,287.18,287.18,287.18,287.18,287.18,287.18,287.18
498.02,498.02,498.02,494.39,494.39,494.39,494.39,494.39,494.39,494.39,494.39,494.39,494.39,494.39,494.39,494.39,494.39,498.02,498.02,498.02,498.02,500.45,500.45,500.45,505.29,505.29,505.29,505.29,505.29,505.29,505.29,505.29,505.29,506.51,506.51,506.51,506.51,506.51,508.93,508.93,508.93,508.93,508.93,508.93,508.93,508.93,508.93,508.93,508.93,508.93,508.93,508.93,508.93,508.93,508.93,508.93,508.93,508.93,508.93,506.51,505.29,505.29,500.45,498.02,498.02,491.96,491.96,491.96,491.96,491.96,491.96,481.06,481.06,481.06,491.96,491.96,491.96,494.39,494.39,494.39,498.02,500.45,500.45,500.45,505.29,505.29,505.29,508.93,508.93,508.93,508.93,508.93,508.93,508.93,508.93,508.93,508.93,508.93,508.93,508.93,508.93,508.93,506.51,506.51,505.29,505.29,505.29,505.29,505.29,505.29,505.29,505.29,505.29,505.29,505.29,505.29,500.45,500.45,498.02,498.02,494.39,494.39,491.96,491.96,491.96,491.96,491.96,491.96,481.06,481.06,481.06,466.52,466.52,466.52,466.52,466.52,466.52,466.52,466.52,466.52,466.52,466.52,466.52,466.52,466.52,481.06,481.06,481.06,481.06,481.06,481.06,481.06,481.06,481.06,481.06,481.06,481.06,481.06,481.06,491.96,491.96,491.96,491.96,491.96,491.96,491.96,491.96,491.96,491.96,491.96,491.96,491.96,491.96,494.39,494.39,494.39,494.39,494.39,494.39,498.02,498.02,498.02,494.39,494.39,494.39,494.39,491.96,491.96,491.96,491.96,491.96,481.06,458.04,458.04,437.44,415.62,420.47,415.62,410.78,403.51,401.08,401.08,395.02,395.02,395.02,392.60,392.60,392.60,390.18,386.54,386.54,386.54,384.12,384.12,384.12,380.48,380.48,380.48,380.48,380.48,380.48,375.64,375.64,372.00,369.58,369.58,369.58,367.15,367.15,363.52,361.09,361.09,361.09,355.04,355.04,352.61,352.61,352.61,352.61,350.19,350.19,346.55,346.55,346.55,346.55,344.13,344.13,344.13,341.71,341.71,341.71,341.71,341.71,338.07,335.65,335.65,333.22,333.22,333.22,329.59,327.16,327.16,327.16,327.16,327.16,327.16,321.11,321.11,321.11,321.11,321.11,321.11,318.68,318.68,318.68,318.68,318.68,312.62,312.62,312.62,310.20,306.56,306.56,306.56,306.56,306.56,304.14,302.93,302.93,302.93,302.93,302.93,302.93,301.72,301.72,301.72,300.51,300.51,300.51,300.51,300.51,300.51,300.51,300.51,300.51,299.29,299.29,299.29,299.29,299.29,299.29,299.29,299.29,298.08,298.08,298.08,298.08,296.87,296.87,296.87,295.66,295.66,295.66,295.66,295.66,295.66,295.66,295.66,294.45,294.45,294.45,294.45,294.45,294.45,294.45,294.45,294.45,294.45,293.24,293.24,293.24,293.24,293.24,293.24,293.24,293.24,293.24,290.81,290.81,290.81,290.81,290.81,290.81,289.60,289.60,289.60,289.60,289.60,289.60,289.60,289.60,289.60,289.60,289.60,288.39,288.39,288.39,288.39,288.39,288.39,288.39,288.39,288.39,288.39,288.39,288.39,288.39,288.39,288.39,288.39,288.39,288.39,288.39,287.18,287.18,287.18,287.18,287.18,287.18,287.18,287.18,287.18,287.18,287.18,287.18,287.18,287.18,287.18,287.18,287.18,287.18,287.18,287.18,287.18,287.18,287.18,287.18,287.18,287.18,287.18,287.18,287.18,287.18,287.18,287.18,287.18,287.18,287.18,287.18,287.18,287.18,287.18,287.18,287.18,287.18,287.18
498.02,498.02,498.02,494.39,494.39,494.39,494.39,494.39,494.39,494.39,494.39,494.39,494.39,494.39,494.39,494.39,494.39,498.02,498.02,498.02,498.02,500.45,500.45,500.45,505.29,505.29,505.29,505.29,505.29,505.29,505.29,505.29,505.29,506.51,506.51,506.51,506.51,506.51,508.93,508.93,508.93,508.93,508.93,508.93,508.93,508.93,508.93,508.93,508.93,508.93,508.93,508.93,508.93,508.93,508.93,508.93,508.93,508.93,508.93,506.51,505.29,505.29,500.45,498.02,498.02,494.39,491.96,491.96,491.96,491.96,491.96,491.96,491.96,491.96,491.96,491.96,491.96,491.96,491.96,494.39,498.02,498.02,498.02,500.45,505.29,505.29,505.29,506.51,508.93,508.93,508.93,508.93,508.93,508.93,508.93,508.93,508.93,508.93,508.93,508.93,508.93,508.93,508.93,508.93,508.93,508.93,508.93,506.51,506.51,506.51,505.29,505.29,505.29,505.29,505.29,505.29,500.45,500.45,498.02,498.02,494.39,494.39,491.96,491.96,491.96,491.96,491.96,491.96,481.06,481.06,481.06,466.52,466.52,466.52,466.52,466.52,466.52,466.52,466.52,466.52,466.52,466.52,466.52,466.52,466.52,481.06,481.06,481.06,481.06,481.06,481.06,481.06,481.06,491.96,491.96,481.06,481.06,491.96,491.96,491.96,491.96,491.96,491.96,491.96,491.96,491.96,491.96,491.96,491.96,494.39,494.39,494.39,494.39,494.39,494.39,494.39,494.39,494.39,494.39,498.02,498.02,498.02,494.39,494.39,494.39,491.96,491.96,491.96,491.96,481.06,481.06,466.52,458.04,458.04,437.44,415.62,421.68,409.56,409.56,403.51,401.08,401.08,398.66,395.02,395.02,392.60,392.60,392.60,390.18,390.18,390.18,386.54,384.12,384.12,384.12,380.48,380.48,380.48,380.48,380.48,380.48,375.64,375.64,372.00,369.58,369.58,369.58,367.15,367.15,363.52,361.09,361.09,361.09,355.04,355.04,352.61,352.61,352.61,352.61,350.19,350.19,346.55,346.55,346.55,346.55,344.13,344.13,344.13,341.71,341.71,341.71,338.07,338.07,335.65,335.65,335.65,333.22,333.22,333.22,329.59,327.16,327.16,327.16,327.16,327.16,327.16,321.11,321.11,321.11,321.11,321.11,321.11,318.68,318.68,318.68,318.68,318.68,312.62,312.62,312.62,310.20,306.56,306.56,306.56,306.56,306.56,304.14,302.93,302.93,302.93,302.93,302.93,302.93,301.72,301.72,301.72,300.51,300.51,300.51,300.51,300.51,300.51,300.51,300.51,300.51,299.29,299.29,299.29,299.29,299.29,299.29,299.29,299.29,298.08,298.08,298.08,298.08,296.87,296.87,296.87,295.66,295.66,295.66,295.66,295.66,295.66,295.66,295.66,295.66,294.45,294.45,294.45,294.45,294.45,294.45,294.45,294.45,294.45,293.24,293.24,293.24,293.24,293.24,293.24,293.24,293.24,293.24,290.81,290.81,290.81,290.81,290.81,290.81,289.60,289.60,289.60,289.60,289.60,289.60,289.60,289.60,289.60,289.60,289.60,288.39,288.39,288.39,288.39,288.39,288.39,288.39,288.39,288.39,288.39,288.39,288.39,288.39,288.39,288.39,288.39,288.39,288.39,288.39,287.18,287.18,287.18,287.18,287.18,287.18,287.18,287.18,287.18,287.18,287.18,287.18,287.18,287.18,287.18,287.18,287.18,287.18,287.18,287.18,287.18,287.18,287.18,287.18,287.18,287.18,287.18,287.18,287.18,287.18,287.18,287.18,287.18,287.18,287.18,287.18,287.18,287.18,287.18,287.18,287.18,287.18,287.18
498.02,498.02,494.39,494.39,494.39,494.39,494.39,494.39,494.39,494.39,494.39,494.39,494.39,494.39,494.39,494.39,494.39,498.02,498.02,498.02,498.02,500.45,500.45,500.45,500.45,500.45,505.29,505.29,505.29,505.29,505.29,505.29,505.29,505.29,506.51,506.51,506.51,506.51,508.93,508.93,508.93,508.93,508.93,508.93,508.93,508.93,508.93,508.93,508.93,508.93,508.93,508.93,508.93,508.93,508.93,508.93,508.93,508.93,508.93,506.51,505.29,505.29,500.45,498.02,498.02,494.39,491.96,491.96,491.96,491.96,491.96,491.96,491.96,491.96,491.96,491.96,491.96,491.96,491.96,494.39,498.02,498.02,498.02,500.45,505.29,505.29,505.29,506.51,508.93,508.93,508.93,508.93,508.93,508.93,508.93,508.93,508.93,508.93,508.93,508.93,508.93,508.93,508.93,508.93,508.93,508.93,508.93,508.93,508.93,506.51,506.51,506.51,506.51,505.29,505.29,505.29,505.29,500.45,500.45,498.02,498.02,498.02,494.39,491.96,491.96,491.96,491.96,491.96,491.96,481.06,481.06,481.06,481.06,481.06,481.06,466.52,466.52,466.52,466.52,466.52,466.52,466.52,481.06,481.06,481.06,481.06,481.06,481.06,481.06,481.06,481.06,481.06,481.06,481.06,481.06,481.06,481.06,491.96,491.96,491.96,491.96,491.96,491.96,491.96,491.96,491.96,491.96,491.96,491.96,494.39,494.39,494.39,494.39,494.39,494.39,494.39,494.39,494.39,494.39,494.39,494.39,494.39,494.39,494.39,494.39,491.96,491.96,491.96,491.96,481.06,481.06,466.52,458.04,458.04,437.44,437.44,418.05,409.56,409.56,403.51,401.08,401.08,398.66,395.02,395.02,395.02,392.60,392.60,392.60,390.18,390.18,386.54,386.54,386.54,384.12,380.48,380.48,380.48,380.48,380.48,380.48,375.64,375.64,372.00,369.58,369.58,369.58,367.15,367.15,363.52,361.09,361.09,361.09,355.04,355.04,352.61,352.61,352.61,352.61,350.19,350.19,346.55,346.55,346.55,346.55,344.13,344.13,341.71,341.71,341.71,341.71,338.07,338.07,335.65,335.65,335.65,333.22,333.22,333.22,329.59,327.16,327.16,327.16,327.16,327.16,327.16,321.11,321.11,321.11,321.11,321.11,321.11,318.68,318.68,318.68,318.68,318.68,312.62,312.62,312.62,310.20,306.56,306.56,306.56,306.56,306.56,304.14,302.93,302.93,302.93,302.93,302.93,302.93,301.72,301.72,301.72,300.51,300.51,300.51,300.51,300.51,300.51,300.51,300.51,300.51,299.29,299.29,299.29,299.29,299.29,299.29,299.29,299.29,298.08,298.08,298.08,298.08,296.87,296.87,296.87,295.66,295.66,295.66,295.66,295.66,295.66,295.66,295.66,295.66,294.45,294.45,294.45,294.45,294.45,294.45,294.45,294.45,294.45,293.24,293.24,293.24,293.24,293.24,293.24,293.24,293.24,292.02,290.81,290.81,290.81,290.81,290.81,290.81,289.60,289.60,289.60,289.60,289.60,289.60,289.60,289.60,289.60,289.60,289.60,288.39,288.39,288.39,288.39,288.39,288.39,288.39,288.39,288.39,288.39,288.39,288.39,288.39,288.39,288.39,288.39,288.39,288.39,288.39,288.39,288.39,287.18,287.18,287.18,287.18,287.18,287.18,287.18,287.18,287.18,287.18,287.18,287.18,287.18,287.18,287.18,287.18,287.18,287.18,287.18,287.18,287.18,287.18,287.18,287.18,287.18,287.18,287.18,287.18,287.18,287.18,287.18,287.18,287.18,287.18,287.18,287.18,287.18,287.18,287.18,287.18,287.18
498.02,498.02,494.39,494.39,494.39,494.39,494.39,494.39,494.39,494.39,494.39,494.39,494.39,494.39,494.39,494.39,494.39,498.02,498.02,498.02,498.02,498.02,498.02,500.45,500.45,500.45,505.29,505.29,505.29,505.29,505.29,505.29,505.29,505.29,506.51,506.51,506.51,506.51,506.51,506.51,508.93,508.93,508.93,508.93,508.93,508.93,508.93,508.93,508.93,508.93,508.93,508.93,508.93,508.93,508.93,508.93,508.93,508.93,508.93,506.51,505.29,505.29,505.29,498.02,498.02,494.39,491.96,491.96,491.96,491.96,491.96,491.96,491.96,491.96,491.96,491.96,491.96,491.96,491.96,494.39,494.39,494.39,498.02,498.02,500.45,500.45,505.29,505.29,506.51,506.51,506.51,508.93,508.93,508.93,508.93,508.93,508.93,508.93,508.93,508.93,508.93,508.93,508.93,508.93,508.93,508.93,508.93,508.93,508.93,506.51,506.51,506.51,506.51,505.29,505.29,505.29,505.29,500.45,500.45,498.02,498.02,498.02,494.39,491.96,491.96,491.96,491.96,491.96,491.96,491.96,491.96,481.06,481.06,481.06,481.06,481.06,481.06,481.06,481.06,481.06,481.06,481.06,481.06,481.06,481.06,481.06,481.06,481.06,481.06,481.06,481.06,481.06,481.06,481.06,481.06,481.06,481.06,491.96,491.96,491.96,491.96,491.96,491.96,491.96,491.96,491.96,491.96,491.96,491.96,494.39,494.39,494.39,494.39,494.39,494.39,494.39,494.39,494.39,494.39,494.39,494.39,494.39,491.96,491.96,491.96,491.96,491.96,491.96,481.06,481.06,481.06,466.52,445.92,445.92,437.44,415.62,415.62,409.56,409.56,403.51,401.08,401.08,398.66,395.02,395.02,395.02,392.60,392.60,392.60,390.18,390.18,386.54,386.54,386.54,384.12,380.48,380.48,380.48,380.48,380.48,380.48,375.64,375.64,372.00,369.58,369.58,369.58,367.15,367.15,363.52,361.09,361.09,361.09,361.09,361.09,355.04,352.61,352.61,352.61,350.19,350.19,346.55,346.55,346.55,346.55,344.13,344.13,341.71,341.71,341.71,341.71,338.07,338.07,335.65,335.65,335.65,333.22,333.22,333.22,329.59,327.16,327.16,327.16,327.16,327.16,327.16,321.11,321.11,321.11,321.11,321.11,321.11,318.68,318.68,318.68,318.68,318.68,312.62,312.62,312.62,310.20,306.56,306.56,306.56,306.56,306.56,304.14,302.93,302.93,302.93,302.93,302.93,302.93,301.72,301.72,301.72,300.51,300.51,300.51,300.51,300.51,300.51,300.51,300.51,300.51,299.29,299.29,299.29,299.29,299.29,299.29,299.29,299.29,298.08,298.08,298.08,298.08,296.87,296.87,296.87,295.66,295.66,295.66,295.66,295.66,295.66,295.66,295.66,295.66,294.45,294.45,294.45,294.45,294.45,294.45,294.45,294.45,294.45,293.24,293.24,293.24,293.24,293.24,293.24,293.24,293.24,292.02,290.81,290.81,290.81,290.81,290.81,290.81,290.81,290.81,289.60,289.60,289.60,289.60,289.60,289.60,289.60,289.60,289.60,289.60,288.39,288.39,288.39,288.39,288.39,288.39,288.39,288.39,288.39,288.39,288.39,288.39,288.39,288.39,288.39,288.39,288.39,288.39,288.39,288.39,287.18,287.18,287.18,287.18,287.18,287.18,287.18,287.18,287.18,287.18,287.18,287.18,287.18,287.18,287.18,287.18,287.18,287.18,287.18,287.18,287.18,287.18,287.18,287.18,287.18,287.18,287.18,287.18,287.18,287.18,287.18,287.18,287.18,287.18,287.18,287.18,287.18,287.18,287.18,287.18,287.18
498.02,494.39,494.39,494.39,494.39,494.39,494.39,494.39,494.39,494.39,494.39,494.39,494.39,494.39,494.39,494.39,494.39,498.02,498.02,498.02,498.02,498.02,498.02,500.45,500.45,500.45,505.29,505.29,505.29,505.29,505.29,505.29,505.29,505.29,506.51,506.51,506.51,506.51,506.51,506.51,508.93,508.93,508.93,508.93,508.93,508.93,508.93,508.93,508.93,508.93,508.93,508.93,508.93,508.93,508.93,508.93,508.93,508.93,508.93,506.51,505.29,505.29,505.29,498.02,498.02,494.39,491.96,491.96,491.96,491.96,491.96,491.96,481.06,481.06,481.06,491.96,491.96,491.96,491.96,491.96,494.39,494.39,494.39,494.39,498.02,498.02,500.45,505.29,505.29,505.29,505.29,505.29,505.29,506.51,506.51,506.51,506.51,506.51,506.51,506.51,508.93,508.93,508.93,508.93,508.93,508.93,506.51,506.51,506.51,506.51,505.29,505.29,505.29,505.29,505.29,505.29,500.45,500.45,498.02,498.02,494.39,494.39,494.39,491.96,491.96,491.96,491.96,491.96,491.96,491.96,491.96,481.06,481.06,481.06,481.06,481.06,481.06,481.06,481.06,481.06,481.06,481.06,481.06,481.06,481.06,481.06,481.06,481.06,481.06,481.06,481.06,481.06,481.06,481.06,481.06,481.06,481.06,491.96,491.96,491.96,491.96,491.96,491.96,491.96,491.96,491.96,491.96,491.96,491.96,494.39,494.39,494.39,491.96,491.96,491.96,491.96,491.96,491.96,491.96,491.96,491.96,491.96,491.96,491.96,491.96,491.96,481.06,481.06,481.06,466.52,466.52,458.04,437.44,437.44,424.11,415.62,415.62,407.14,407.14,403.51,401.08,401.08,398.66,398.66,398.66,395.02,392.60,392.60,392.60,390.18,390.18,386.54,386.54,386.54,384.12,380.48,380.48,380.48,380.48,380.48,380.48,375.64,375.64,372.00,369.58,369.58,369.58,367.15,367.15,363.52,361.09,361.09,361.09,361.09,361.09,355.04,352.61,352.61,352.61,350.19,350.19,346.55,346.55,346.55,344.13,344.13,344.13,341.71,341.71,341.71,341.71,338.07,338.07,335.65,333.22,333.22,333.22,333.22,333.22,329.59,327.16,327.16,327.16,327.16,327.16,327.16,321.11,321.11,321.11,321.11,321.11,321.11,318.68,318.68,318.68,318.68,318.68,312.62,312.62,312.62,310.20,306.56,306.56,306.56,306.56,306.56,304.14,302.93,302.93,302.93,302.93,302.93,302.93,301.72,301.72,301.72,300.51,300.51,300.51,300.51,300.51,300.51,300.51,300.51,300.51,299.29,299.29,299.29,299.29,299.29,299.29,299.29,299.29,298.08,298.08,298.08,298.08,298.08,298.08,296.87,296.87,296.87,295.66,295.66,295.66,295.66,295.66,295.66,295.66,295.66,295.66,294.45,294.45,294.45,294.45,294.45,294.45,294.45,293.24,293.24,293.24,293.24,293.24,293.24,293.24,293.24,292.02,290.81,290.81,290.81,290.81,290.81,290.81,290.81,290.81,289.60,289.60,289.60,289.60,289.60,289.60,289.60,289.60,289.60,289.60,288.39,288.39,288.39,288.39,288.39,288.39,288.39,288.39,288.39,288.39,288.39,288.39,288.39,288.39,288.39,288.39,288.39,288.39,288.39,288.39,287.18,287.18,287.18,287.18,287.18,287.18,287.18,287.18,287.18,287.18,287.18,287.18,287.18,287.18,287.18,287.18,287.18,287.18,287.18,287.18,287.18,287.18,287.18,287.18,287.18,287.18,287.18,287.18,287.18,287.18,287.18,287.18,287.18,287.18,287.18,287.18,287.18,287.18,287.18,287.18,287.18
494.39,494.39,494.39,494.39,494.39,494.39,494.39,494.39,494.39,494.39,494.39,494.39,494.39,494.39,494.39,494.39,494.39,494.39,494.39,494.39,498.02,498.02,498.02,498.02,500.45,500.45,500.45,505.29,505.29,505.29,505.29,505.29,505.29,505.29,505.29,505.29,505.29,506.51,506.51,506.51,506.51,508.93,508.93,508.93,508.93,508.93,508.93,508.93,508.93,508.93,508.93,508.93,508.93,508.93,508.93,508.93,508.93,508.93,508.93,506.51,505.29,505.29,505.29,498.02,498.02,494.39,491.96,491.96,491.96,491.96,491.96,491.96,481.06,481.06,481.06,491.96,491.96,491.96,491.96,491.96,494.39,494.39,494.39,494.39,498.02,498.02,500.45,505.29,505.29,505.29,505.29,505.29,505.29,505.29,505.29,505.29,505.29,505.29,505.29,505.29,505.29,506.51,506.51,506.51,506.51,505.29,505.29,505.29,505.29,505.29,505.29,505.29,500.45,500.45,500.45,498.02,498.02,498.02,498.02,494.39,494.39,494.39,491.96,491.96,491.96,491.96,491.96,491.96,491.96,491.96,491.96,491.96,481.06,481.06,481.06,481.06,481.06,481.06,481.06,481.06,481.06,481.06,481.06,481.06,481.06,481.06,481.06,481.06,481.06,481.06,481.06,481.06,481.06,481.06,481.06,481.06,481.06,481.06,481.06,491.96,491.96,491.96,491.96,491.96,491.96,491.96,491.96,491.96,491.96,491.96,491.96,491.96,491.96,491.96,491.96,491.96,491.96,491.96,491.96,491.96,491.96,491.96,491.96,491.96,491.96,491.96,481.06,481.06,481.06,466.52,466.52,458.04,437.44,437.44,424.11,415.62,415.62,407.14,407.14,403.51,401.08,401.08,398.66,398.66,398.66,395.02,392.60,392.60,392.60,390.18,390.18,386.54,386.54,386.54,384.12,380.48,380.48,380.48,380.48,380.48,375.64,375.64,375.64,372.00,369.58,369.58,369.58,369.58,369.58,363.52,361.09,361.09,361.09,361.09,361.09,355.04,352.61,352.61,350.19,350.19,350.19,346.55,346.55,346.55,344.13,344.13,344.13,341.71,341.71,341.71,338.07,335.65,335.65,335.65,333.22,333.22,333.22,329.59,329.59,329.59,327.16,327.16,327.16,327.16,327.16,327.16,321.11,321.11,321.11,321.11,321.11,321.11,318.68,318.68,318.68,318.68,318.68,312.62,312.62,312.62,310.20,306.56,306.56,306.56,306.56,306.56,304.14,302.93,302.93,302.93,302.93,302.93,302.93,301.72,301.72,301.72,300.51,300.51,300.51,300.51,300.51,300.51,300.51,300.51,300.51,299.29,299.29,299.29,299.29,299.29,299.29,299.29,299.29,298.08,298.08,298.08,298.08,298.08,298.08,296.87,296.87,296.87,295.66,295.66,295.66,295.66,295.66,295.66,295.66,295.66,295.66,294.45,294.45,294.45,294.45,294.45,294.45,293.24,293.24,293.24,293.24,293.24,293.24,293.24,293.24,293.24,292.02,290.81,290.81,290.81,290.81,290.81,290.81,290.81,290.81,289.60,289.60,289.60,289.60,289.60,289.60,289.60,289.60,289.60,289.60,288.39,288.39,288.39,288.39,288.39,288.39,288.39,288.39,288.39,288.39,288.39,288.39,288.39,288.39,288.39,288.39,288.39,288.39,288.39,288.39,287.18,287.18,287.18,287.18,287.18,287.18,287.18,287.18,287.18,287.18,287.18,287.18,287.18,287.18,287.18,287.18,287.18,287.18,287.18,287.18,287.18,287.18,287.18,287.18,287.18,287.18,287.18,287.18,287.18,287.18,287.18,287.18,287.18,287.18,287.18,287.18,287.18,287.18,287.18,287.18,287.18
494.39,494.39,494.39,494.39,494.39,491.96,491.96,491.96,491.96,491.96,494.39,494.39,494.39,494.39,494.39,494.39,494.39,494.39,494.39,494.39,494.39,494.39,498.02,498.02,498.02,498.02,500.45,500.45,500.45,505.29,505.29,505.29,505.29,505.29,505.29,505.29,505.29,505.29,506.51,506.51,506.51,506.51,506.51,506.51,508.93,508.93,508.93,508.93,508.93,508.93,508.93,508.93,508.93,508.93,508.93,508.93,508.93,508.93,508.93,506.51,505.29,505.29,505.29,498.02,498.02,494.39,491.96,491.96,491.96,491.96,491.96,481.06,481.06,481.06,481.06,481.06,491.96,491.96,491.96,491.96,491.96,491.96,491.96,491.96,494.39,494.39,498.02,498.02,498.02,500.45,505.29,505.29,505.29,505.29,505.29,505.29,505.29,505.29,505.29,505.29,505.29,506.51,506.51,506.51,506.51,505.29,505.29,505.29,505.29,505.29,505.29,505.29,500.45,500.45,500.45,498.02,498.02,498.02,498.02,494.39,494.39,494.39,491.96,491.96,491.96,491.96,481.06,481.06,481.06,481.06,481.06,481.06,481.06,481.06,481.06,481.06,481.06,481.06,466.52,466.52,466.52,466.52,481.06,481.06,466.52,466.52,466.52,466.52,466.52,466.52,466.52,466.52,466.52,466.52,466.52,481.06,481.06,481.06,481.06,481.06,491.96,491.96,491.96,491.96,491.96,491.96,491.96,491.96,491.96,491.96,491.96,491.96,491.96,491.96,491.96,491.96,491.96,491.96,491.96,491.96,491.96,491.96,491.96,491.96,491.96,481.06,481.06,481.06,466.52,458.04,458.04,445.92,437.44,437.44,424.11,411.99,411.99,407.14,407.14,403.51,401.08,401.08,398.66,398.66,398.66,395.02,392.60,392.60,392.60,390.18,390.18,386.54,386.54,386.54,384.12,380.48,380.48,380.48,380.48,380.48,375.64,375.64,375.64,372.00,369.58,369.58,369.58,369.58,369.58,363.52,361.09,361.09,361.09,361.09,361.09,355.04,352.61,352.61,350.19,350.19,350.19,346.55,346.55,346.55,344.13,344.13,344.13,341.71,341.71,341.71,338.07,335.65,335.65,335.65,333.22,333.22,333.22,329.59,329.59,329.59,327.16,327.16,327.16,327.16,327.16,327.16,321.11,321.11,321.11,321.11,321.11,321.11,318.68,318.68,318.68,318.68,318.68,312.62,312.62,312.62,310.20,306.56,306.56,306.56,306.56,306.56,304.14,304.14,304.14,302.93,302.93,302.93,302.93,301.72,301.72,301.72,300.51,300.51,300.51,300.51,300.51,300.51,300.51,300.51,300.51,299.29,299.29,299.29,299.29,299.29,299.29,299.29,299.29,298.08,298.08,298.08,298.08,298.08,298.08,296.87,296.87,296.87,295.66,295.66,295.66,295.66,295.66,295.66,295.66,295.66,295.66,294.45,294.45,294.45,294.45,294.45,294.45,293.24,293.24,293.24,293.24,293.24,293.24,293.24,293.24,293.24,292.02,290.81,290.81,290.81,290.81,290.81,290.81,290.81,290.81,289.60,289.60,289.60,289.60,289.60,289.60,289.60,289.60,289.60,289.60,288.39,288.39,288.39,288.39,288.39,288.39,288.39,288.39,288.39,288.39,288.39,288.39,288.39,288.39,288.39,288.39,288.39,288.39,288.39,288.39,287.18,287.18,287.18,287.18,287.18,287.18,287.18,287.18,287.18,287.18,287.18,287.18,287.18,287.18,287.18,287.18,287.18,287.18,287.18,287.18,287.18,287.18,287.18,287.18,287.18,287.18,287.18,287.18,287.18,287.18,287.18,287.18,287.18,287.18,287.18,287.18,287.18,287.18,287.18,287.18,287.18
494.39,491.96,491.96,491.96,491.96,491.96,491.96,491.96,491.96,491.96,494.39,494.39,494.39,494.39,494.39,494.39,494.39,494.39,494.39,494.39,494.39,494.39,498.02,498.02,498.02,498.02,500.45,500.45,500.45,505.29,505.29,505.29,505.29,505.29,505.29,505.29,505.29,505.29,506.51,506.51,506.51,506.51,506.51,506.51,506.51,506.51,506.51,506.51,508.93,508.93,508.93,508.93,508.93,508.93,508.93,508.93,508.93,508.93,508.93,506.51,505.29,505.29,505.29,498.02,498.02,494.39,494.39,494.39,491.96,491.96,491.96,481.06,481.06,481.06,481.06,481.06,481.06,491.96,491.96,491.96,491.96,491.96,491.96,491.96,491.96,491.96,491.96,494.39,494.39,498.02,498.02,498.02,498.02,500.45,500.45,500.45,505.29,505.29,505.29,505.29,505.29,505.29,505.29,505.29,505.29,505.29,505.29,505.29,500.45,500.45,498.02,498.02,498.02,498.02,498.02,494.39,494.39,494.39,494.39,491.96,491.96,491.96,491.96,491.96,491.96,491.96,481.06,481.06,481.06,481.06,481.06,481.06,481.06,481.06,481.06,481.06,481.06,481.06,466.52,466.52,466.52,466.52,481.06,481.06,466.52,466.52,466.52,466.52,466.52,466.52,466.52,466.52,466.52,466.52,466.52,481.06,481.06,481.06,481.06,481.06,491.96,481.06,481.06,491.96,491.96,491.96,491.96,491.96,491.96,491.96,491.96,491.96,491.96,491.96,491.96,491.96,491.96,491.96,491.96,491.96,491.96,491.96,481.06,481.06,481.06,481.06,466.52,466.52,458.04,445.92,445.92,437.44,437.44,437.44,415.62,411.99,409.56,407.14,407.14,403.51,401.08,401.08,401.08,398.66,398.66,395.02,392.60,392.60,392.60,390.18,390.18,386.54,386.54,386.54,384.12,380.48,380.48,380.48,380.48,380.48,375.64,375.64,375.64,372.00,369.58,369.58,369.58,367.15,367.15,363.52,361.09,361.09,361.09,361.09,361.09,355.04,352.61,352.61,350.19,350.19,350.19,346.55,346.55,346.55,344.13,344.13,344.13,341.71,341.71,341.71,338.07,335.65,335.65,335.65,333.22,333.22,333.22,329.59,329.59,329.59,327.16,327.16,327.16,327.16,327.16,327.16,327.16,327.16,321.11,321.11,321.11,321.11,318.68,318.68,318.68,318.68,318.68,312.62,312.62,312.62,310.20,306.56,306.56,306.56,304.14,304.14,304.14,304.14,304.14,302.93,302.93,302.93,302.93,302.93,302.93,301.72,301.72,301.72,300.51,300.51,300.51,300.51,300.51,300.51,300.51,299.29,299.29,299.29,299.29,299.29,299.29,299.29,299.29,298.08,298.08,298.08,298.08,298.08,298.08,296.87,296.87,296.87,295.66,295.66,295.66,295.66,295.66,295.66,295.66,295.66,295.66,294.45,294.45,294.45,294.45,294.45,294.45,293.24,293.24,293.24,293.24,293.24,293.24,293.24,293.24,293.24,292.02,290.81,290.81,290.81,290.81,290.81,290.81,290.81,290.81,289.60,289.60,289.60,289.60,289.60,289.60,289.60,289.60,289.60,289.60,288.39,288.39,288.39,288.39,288.39,288.39,288.39,288.39,288.39,288.39,288.39,288.39,288.39,288.39,288.39,288.39,288.39,288.39,288.39,288.39,287.18,287.18,287.18,287.18,287.18,287.18,287.18,287.18,287.18,287.18,287.18,287.18,287.18,287.18,287.18,287.18,287.18,287.18,287.18,287.18,287.18,287.18,287.18,287.18,287.18,287.18,287.18,287.18,287.18,287.18,287.18,287.18,287.18,287.18,287.18,287.18,287.18,287.18,287.18,287.18,287.18
491.96,491.96,491.96,491.96,491.96,491.96,491.96,491.96,491.96,491.96,491.96,491.96,494.39,494.39,494.39,494.39,494.39,494.39,494.39,494.39,494.39,494.39,494.39,498.02,498.02,498.02,498.02,500.45,500.45,500.45,505.29,505.29,505.29,505.29,505.29,505.29,505.29,505.29,505.29,505.29,506.51,506.51,506.51,506.51,506.51,506.51,506.51,506.51,508.93,508.93,508.93,508.93,508.93,508.93,508.93,508.93,508.93,508.93,508.93,506.51,505.29,505.29,505.29,498.02,498.02,494.39,494.39,494.39,491.96,491.96,491.96,481.06,481.06,481.06,481.06,481.06,481.06,481.06,481.06,481.06,481.06,481.06,481.06,481.06,481.06,491.96,491.96,491.96,491.96,491.96,494.39,494.39,494.39,494.39,498.02,498.02,498.02,498.02,498.02,498.02,500.45,500.45,500.45,500.45,500.45,498.02,498.02,498.02,498.02,494.39,494.39,494.39,494.39,491.96,491.96,491.96,491.96,491.96,491.96,491.96,491.96,491.96,491.96,491.96,491.96,481.06,481.06,481.06,481.06,481.06,481.06,481.06,481.06,481.06,481.06,466.52,466.52,466.52,466.52,466.52,466.52,466.52,466.52,466.52,466.52,466.52,466.52,466.52,466.52,466.52,466.52,466.52,466.52,466.52,466.52,466.52,466.52,481.06,481.06,481.06,481.06,481.06,481.06,491.96,491.96,491.96,491.96,491.96,491.96,491.96,491.96,491.96,491.96,491.96,491.96,491.96,491.96,491.96,491.96,491.96,491.96,491.96,481.06,481.06,481.06,481.06,466.52,466.52,458.04,445.92,445.92,437.44,437.44,437.44,415.62,415.62,409.56,407.14,407.14,403.51,401.08,401.08,401.08,398.66,398.66,395.02,392.60,392.60,392.60,390.18,390.18,386.54,386.54,386.54,384.12,380.48,380.48,380.48,380.48,380.48,375.64,375.64,375.64,372.00,369.58,369.58,369.58,367.15,367.15,363.52,361.09,361.09,361.09,361.09,361.09,355.04,352.61,352.61,352.61,350.19,350.19,346.55,346.55,346.55,344.13,344.13,344.13,341.71,341.71,341.71,338.07,335.65,335.65,335.65,333.22,333.22,333.22,329.59,329.59,327.16,327.16,327.16,327.16,327.16,327.16,327.16,321.11,321.11,321.11,321.11,321.11,321.11,318.68,318.68,318.68,318.68,318.68,312.62,312.62,312.62,306.56,306.56,306.56,306.56,304.14,304.14,304.14,304.14,304.14,302.93,302.93,302.93,302.93,302.93,302.93,301.72,301.72,301.72,301.72,300.51,300.51,300.51,300.51,300.51,300.51,299.29,299.29,299.29,299.29,299.29,299.29,299.29,299.29,298.08,298.08,298.08,298.08,298.08,298.08,296.87,296.87,296.87,296.87,295.66,295.66,295.66,295.66,295.66,295.66,295.66,295.66,295.66,294.45,294.45,294.45,294.45,294.45,293.24,293.24,293.24,293.24,293.24,293.24,293.24,293.24,293.24,292.02,290.81,290.81,290.81,290.81,290.81,290.81,290.81,290.81,289.60,289.60,289.60,289.60,289.60,289.60,289.60,289.60,289.60,289.60,288.39,288.39,288.39,288.39,288.39,288.39,288.39,288.39,288.39,288.39,288.39,288.39,288.39,288.39,288.39,288.39,288.39,288.39,288.39,288.39,287.18,287.18,287.18,287.18,287.18,287.18,287.18,287.18,287.18,287.18,287.18,287.18,287.18,287.18,287.18,287.18,287.18,287.18,287.18,287.18,287.18,287.18,287.18,287.18,287.18,287.18,287.18,287.18,287.18,287.18,287.18,287.18,287.18,287.18,287.18,287.18,287.18,287.18,287.18,287.18,287.18
491.96,491.96,491.96,491.96,491.96,491.96,491.96,491.96,491.96,491.96,491.96,491.96,491.96,491.96,491.96,491.96,491.96,494.39,494.39,494.39,494.39,494.39,494.39,498.02,498.02,498.02,498.02,500.45,500.45,500.45,500.45,500.45,505.29,505.29,505.29,505.29,505.29,505.29,505.29,505.29,505.29,505.29,505.29,506.51,506.51,506.51,506.51,506.51,506.51,506.51,506.51,508.93,508.93,508.93,508.93,508.93,508.93,508.93,508.93,506.51,505.29,505.29,505.29,498.02,498.02,494.39,491.96,491.96,491.96,491.96,491.96,481.06,481.06,481.06,481.06,481.06,481.06,481.06,481.06,481.06,481.06,481.06,481.06,481.06,481.06,491.96,491.96,491.96,491.96,491.96,494.39,494.39,494.39,494.39,498.02,498.02,498.02,498.02,498.02,498.02,500.45,500.45,500.45,500.45,500.45,498.02,498.02,498.02,498.02,494.39,494.39,494.39,491.96,491.96,491.96,491.96,491.96,491.96,481.06,481.06,481.06,481.06,481.06,481.06,481.06,481.06,466.52,466.52,466.52,466.52,466.52,466.52,466.52,466.52,466.52,466.52,466.52,458.04,458.04,458.04,458.04,458.04,458.04,458.04,458.04,458.04,458.04,458.04,458.04,458.04,458.04,458.04,458.04,458.04,458.04,466.52,466.52,466.52,466.52,466.52,481.06,481.06,481.06,481.06,481.06,481.06,481.06,491.96,491.96,491.96,491.96,491.96,491.96,491.96,491.96,491.96,491.96,491.96,491.96,491.96,491.96,481.06,481.06,481.06,466.52,466.52,466.52,458.04,458.04,445.92,437.44,437.44,437.44,424.11,415.62,415.62,409.56,407.14,407.14,403.51,401.08,401.08,401.08,398.66,398.66,395.02,395.02,395.02,392.60,390.18,390.18,390.18,386.54,386.54,384.12,380.48,380.48,380.48,380.48,380.48,375.64,375.64,375.64,372.00,369.58,369.58,369.58,367.15,367.15,363.52,361.09,361.09,361.09,361.09,361.09,355.04,352.61,352.61,352.61,350.19,350.19,346.55,346.55,346.55,344.13,344.13,344.13,341.71,341.71,341.71,338.07,335.65,335.65,335.65,333.22,333.22,333.22,329.59,329.59,327.16,327.16,327.16,327.16,327.16,327.16,327.16,321.11,321.11,321.11,321.11,321.11,321.11,318.68,318.68,318.68,318.68,318.68,312.62,312.62,312.62,306.56,306.56,306.56,306.56,304.14,304.14,304.14,302.93,302.93,302.93,302.93,302.93,302.93,302.93,302.93,301.72,301.72,301.72,301.72,300.51,300.51,300.51,300.51,300.51,300.51,299.29,299.29,299.29,299.29,299.29,299.29,299.29,299.29,298.08,298.08,298.08,298.08,298.08,298.08,298.08,296.87,296.87,296.87,295.66,295.66,295.66,295.66,295.66,295.66,295.66,295.66,295.66,294.45,294.45,294.45,294.45,294.45,293.24,293.24,293.24,293.24,293.24,293.24,293.24,293.24,293.24,292.02,290.81,290.81,290.81,290.81,290.81,290.81,290.81,290.81,290.81,289.60,289.60,289.60,289.60,289.60,289.60,289.60,289.60,289.60,288.39,288.39,288.39,288.39,288.39,288.39,288.39,288.39,288.39,288.39,288.39,288.39,288.39,288.39,288.39,288.39,288.39,288.39,288.39,288.39,287.18,287.18,287.18,287.18,287.18,287.18,287.18,287.18,287.18,287.18,287.18,287.18,287.18,287.18,287.18,287.18,287.18,287.18,287.18,287.18,287.18,287.18,287.18,287.18,287.18,287.18,287.18,287.18,287.18,287.18,287.18,287.18,287.18,287.18,287.18,287.18,287.18,287.18,287.18,287.18,287.18
491.96,491.96,491.96,491.96,491.96,491.96,491.96,491.96,491.96,491.96,491.96,491.96,491.96,491.96,491.96,491.96,491.96,494.39,494.39,494.39,494.39,494.39,494.39,498.02,498.02,498.02,498.02,500.45,500.45,500.45,500.45,500.45,500.45,505.29,505.29,505.29,505.29,505.29,505.29,505.29,505.29,505.29,505.29,505.29,505.29,505.29,505.29,506.51,506.51,506.51,506.51,506.51,506.51,506.51,508.93,508.93,508.93,508.93,508.93,506.51,505.29,505.29,500.45,498.02,498.02,498.02,491.96,491.96,491.96,491.96,491.96,481.06,481.06,481.06,481.06,466.52,466.52,466.52,481.06,481.06,481.06,466.52,466.52,481.06,481.06,481.06,481.06,481.06,481.06,491.96,491.96,491.96,491.96,491.96,491.96,491.96,491.96,491.96,491.96,494.39,494.39,494.39,494.39,494.39,494.39,494.39,494.39,494.39,491.96,491.96,491.96,491.96,491.96,491.96,491.96,491.96,491.96,491.96,481.06,481.06,481.06,481.06,481.06,481.06,481.06,481.06,466.52,466.52,466.52,466.52,466.52,466.52,466.52,466.52,466.52,466.52,466.52,458.04,458.04,458.04,458.04,458.04,458.04,458.04,458.04,458.04,458.04,458.04,458.04,458.04,458.04,458.04,458.04,458.04,458.04,458.04,458.04,458.04,466.52,466.52,466.52,466.52,466.52,481.06,481.06,481.06,481.06,481.06,481.06,481.06,481.06,481.06,481.06,481.06,481.06,481.06,481.06,481.06,481.06,481.06,481.06,481.06,466.52,466.52,466.52,458.04,458.04,458.04,445.92,445.92,437.44,424.11,424.11,415.62,411.99,411.99,409.56,407.14,407.14,403.51,401.08,401.08,401.08,398.66,398.66,395.02,395.02,395.02,392.60,390.18,390.18,390.18,386.54,386.54,384.12,380.48,380.48,380.48,380.48,380.48,375.64,375.64,375.64,372.00,369.58,369.58,369.58,367.15,367.15,363.52,361.09,361.09,361.09,361.09,361.09,355.04,352.61,352.61,352.61,350.19,350.19,346.55,346.55,346.55,344.13,344.13,344.13,341.71,341.71,341.71,338.07,335.65,335.65,335.65,333.22,333.22,333.22,329.59,329.59,329.59,327.16,327.16,327.16,327.16,327.16,327.16,321.11,321.11,321.11,321.11,321.11,318.68,318.68,318.68,318.68,318.68,318.68,312.62,312.62,312.62,306.56,306.56,306.56,306.56,304.14,304.14,304.14,302.93,302.93,302.93,302.93,302.93,302.93,302.93,302.93,301.72,301.72,301.72,301.72,300.51,300.51,300.51,300.51,300.51,300.51,299.29,299.29,299.29,299.29,299.29,299.29,299.29,299.29,298.08,298.08,298.08,298.08,298.08,298.08,298.08,296.87,296.87,296.87,295.66,295.66,295.66,295.66,295.66,295.66,295.66,295.66,295.66,294.45,294.45,294.45,294.45,294.45,293.24,293.24,293.24,293.24,293.24,293.24,293.24,293.24,293.24,292.02,290.81,290.81,290.81,290.81,290.81,290.81,290.81,290.81,290.81,289.60,289.60,289.60,289.60,289.60,289.60,289.60,289.60,289.60,288.39,288.39,288.39,288.39,288.39,288.39,288.39,288.39,288.39,288.39,288.39,288.39,288.39,288.39,288.39,288.39,288.39,288.39,288.39,288.39,287.18,287.18,287.18,287.18,287.18,287.18,287.18,287.18,287.18,287.18,287.18,287.18,287.18,287.18,287.18,287.18,287.18,287.18,287.18,287.18,287.18,287.18,287.18,287.18,287.18,287.18,287.18,287.18,287.18,287.18,287.18,287.18,287.18,287.18,287.18,287.18,287.18,287.18,287.18,287.18,287.18
491.96,491.96,491.96,491.96,491.96,491.96,491.96,491.96,491.96,491.96,491.96,491.96,491.96,491.96,491.96,491.96,491.96,491.96,491.96,491.96,494.39,494.39,494.39,494.39,494.39,498.02,498.02,498.02,498.02,500.45,500.45,500.45,500.45,505.29,505.29,505.29,505.29,505.29,505.29,505.29,505.29,505.29,505.29,505.29,505.29,505.29,505.29,506.51,506.51,506.51,506.51,506.51,506.51,506.51,508.93,508.93,508.93,508.93,508.93,506.51,505.29,505.29,500.45,498.02,498.02,498.02,494.39,494.39,491.96,481.06,481.06,466.52,466.52,466.52,466.52,466.52,466.52,466.52,466.52,466.52,466.52,466.52,458.04,458.04,458.04,466.52,466.52,466.52,481.06,481.06,481.06,481.06,481.06,481.06,481.06,491.96,491.96,491.96,491.96,491.96,491.96,491.96,491.96,491.96,491.96,491.96,491.96,491.96,491.96,481.06,481.06,481.06,481.06,481.06,481.06,481.06,481.06,481.06,481.06,466.52,466.52,466.52,466.52,466.52,466.52,466.52,466.52,458.04,458.04,458.04,458.04,458.04,458.04,458.04,458.04,458.04,458.04,458.04,458.04,458.04,458.04,458.04,458.04,458.04,458.04,458.04,458.04,458.04,458.04,458.04,458.04,458.04,458.04,458.04,458.04,458.04,458.04,458.04,466.52,466.52,466.52,466.52,466.52,481.06,481.06,481.06,481.06,481.06,481.06,481.06,481.06,481.06,481.06,481.06,481.06,481.06,481.06,481.06,481.06,481.06,481.06,481.06,466.52,466.52,458.04,458.04,458.04,445.92,437.44,437.44,437.44,424.11,424.11,415.62,409.56,409.56,407.14,407.14,407.14,403.51,401.08,401.08,398.66,398.66,398.66,395.02,395.02,395.02,392.60,390.18,390.18,390.18,386.54,386.54,384.12,380.48,380.48,380.48,380.48,380.48,375.64,375.64,375.64,372.00,369.58,369.58,369.58,367.15,367.15,363.52,361.09,361.09,361.09,361.09,361.09,355.04,352.61,352.61,352.61,350.19,350.19,346.55,346.55,346.55,344.13,344.13,344.13,341.71,341.71,341.71,338.07,335.65,335.65,335.65,333.22,333.22,333.22,329.59,329.59,329.59,327.16,327.16,327.16,327.16,327.16,327.16,321.11,321.11,321.11,321.11,321.11,318.68,318.68,318.68,318.68,318.68,318.68,312.62,312.62,312.62,306.56,306.56,306.56,306.56,304.14,304.14,304.14,304.14,304.14,302.93,302.93,302.93,302.93,302.93,302.93,301.72,301.72,301.72,301.72,300.51,300.51,300.51,300.51,300.51,300.51,299.29,299.29,299.29,299.29,299.29,299.29,299.29,299.29,298.08,298.08,298.08,298.08,298.08,298.08,296.87,296.87,296.87,296.87,295.66,295.66,295.66,295.66,295.66,295.66,295.66,295.66,295.66,294.45,294.45,294.45,294.45,294.45,293.24,293.24,293.24,293.24,293.24,293.24,293.24,293.24,293.24,292.02,292.02,292.02,290.81,290.81,290.81,290.81,290.81,290.81,290.81,289.60,289.60,289.60,289.60,289.60,289.60,289.60,289.60,289.60,288.39,288.39,288.39,288.39,288.39,288.39,288.39,288.39,288.39,288.39,288.39,288.39,288.39,288.39,288.39,288.39,288.39,288.39,288.39,288.39,287.18,287.18,287.18,287.18,287.18,287.18,287.18,287.18,287.18,287.18,287.18,287.18,287.18,287.18,287.18,287.18,287.18,287.18,287.18,287.18,287.18,287.18,287.18,287.18,287.18,287.18,287.18,287.18,287.18,287.18,287.18,287.18,287.18,287.18,287.18,287.18,287.18,287.18,287.18,287.18,287.18
491.96,491.96,491.96,491.96,491.96,491.96,491.96,491.96,491.96,491.96,491.96,491.96,491.96,491.96,491.96,491.96,491.96,491.96,491.96,491.96,494.39,494.39,494.39,494.39,494.39,494.39,498.02,498.02,498.02,498.02,500.45,500.45,500.45,500.45,505.29,505.29,505.29,505.29,505.29,505.29,505.29,505.29,505.29,505.29,505.29,505.29,505.29,505.29,505.29,506.51,506.51,506.51,506.51,506.51,506.51,506.51,508.93,508.93,508.93,506.51,505.29,505.29,500.45,498.02,498.02,498.02,494.39,494.39,491.96,481.06,481.06,466.52,466.52,466.52,466.52,466.52,466.52,466.52,466.52,466.52,466.52,466.52,458.04,458.04,458.04,466.52,466.52,466.52,481.06,481.06,481.06,481.06,481.06,481.06,481.06,491.96,491.96,491.96,491.96,491.96,491.96,491.96,491.96,491.96,481.06,481.06,481.06,481.06,481.06,466.52,466.52,466.52,466.52,466.52,466.52,466.52,466.52,458.04,458.04,458.04,458.04,458.04,458.04,458.04,458.04,458.04,458.04,458.04,458.04,458.04,458.04,458.04,458.04,458.04,445.92,445.92,445.92,445.92,445.92,445.92,445.92,445.92,445.92,445.92,445.92,445.92,445.92,445.92,445.92,458.04,458.04,458.04,458.04,458.04,458.04,458.04,458.04,458.04,458.04,466.52,466.52,466.52,466.52,466.52,466.52,481.06,481.06,481.06,481.06,481.06,481.06,481.06,481.06,481.06,481.06,481.06,481.06,481.06,481.06,481.06,481.06,466.52,466.52,466.52,458.04,458.04,458.04,445.92,437.44,437.44,437.44,424.11,424.11,415.62,409.56,409.56,407.14,407.14,407.14,403.51,401.08,401.08,398.66,398.66,398.66,395.02,395.02,395.02,392.60,390.18,390.18,390.18,386.54,386.54,384.12,380.48,380.48,380.48,380.48,380.48,375.64,375.64,375.64,372.00,369.58,369.58,369.58,367.15,367.15,363.52,361.09,361.09,361.09,361.09,361.09,355.04,352.61,352.61,352.61,350.19,350.19,346.55,346.55,346.55,344.13,344.13,344.13,341.71,341.71,341.71,338.07,335.65,335.65,335.65,333.22,333.22,333.22,329.59,329.59,329.59,327.16,327.16,327.16,327.16,327.16,327.16,321.11,321.11,321.11,321.11,321.11,318.68,318.68,318.68,318.68,318.68,318.68,312.62,310.20,310.20,306.56,306.56,306.56,306.56,304.14,304.14,304.14,304.14,304.14,302.93,302.93,302.93,302.93,302.93,302.93,301.72,301.72,301.72,301.72,300.51,300.51,300.51,300.51,300.51,300.51,299.29,299.29,299.29,299.29,299.29,299.29,299.29,299.29,298.08,298.08,298.08,298.08,298.08,298.08,296.87,296.87,296.87,296.87,295.66,295.66,295.66,295.66,295.66,295.66,295.66,295.66,295.66,294.45,294.45,294.45,294.45,294.45,293.24,293.24,293.24,293.24,293.24,293.24,293.24,293.24,293.24,293.24,292.02,292.02,290.81,290.81,290.81,290.81,290.81,290.81,290.81,289.60,289.60,289.60,289.60,289.60,289.60,289.60,289.60,289.60,289.60,289.60,288.39,288.39,288.39,288.39,288.39,288.39,288.39,288.39,288.39,288.39,288.39,288.39,288.39,288.39,288.39,288.39,287.18,287.18,287.18,287.18,287.18,287.18,287.18,287.18,287.18,287.18,287.18,287.18,287.18,287.18,287.18,287.18,287.18,287.18,287.18,287.18,287.18,287.18,287.18,287.18,287.18,287.18,287.18,287.18,287.18,287.18,287.18,287.18,287.18,287.18,287.18,287.18,287.18,287.18,287.18,287.18,287.18,287.18,287.18
491.96,491.96,491.96,491.96,491.96,491.96,491.96,491.96,491.96,491.96,491.96,491.96,491.96,491.96,491.96,491.96,491.96,491.96,491.96,491.96,491.96,491.96,494.39,494.39,494.39,494.39,498.02,498.02,498.02,498.02,500.45,500.45,500.45,500.45,500.45,500.45,505.29,505.29,505.29,505.29,505.29,505.29,505.29,505.29,505.29,505.29,505.29,505.29,505.29,505.29,505.29,505.29,505.29,506.51,506.51,506.51,506.51,508.93,508.93,506.51,505.29,505.29,500.45,498.02,498.02,498.02,494.39,494.39,491.96,481.06,481.06,466.52,466.52,466.52,466.52,458.04,458.04,458.04,458.04,458.04,458.04,458.04,458.04,458.04,458.04,458.04,458.04,458.04,458.04,466.52,466.52,466.52,466.52,481.06,481.06,481.06,481.06,481.06,481.06,481.06,491.96,491.96,491.96,491.96,481.06,481.06,481.06,481.06,481.06,466.52,466.52,466.52,466.52,466.52,466.52,466.52,466.52,458.04,458.04,458.04,458.04,458.04,458.04,458.04,458.04,458.04,458.04,458.04,458.04,458.04,458.04,458.04,458.04,458.04,445.92,445.92,445.92,445.92,445.92,445.92,445.92,445.92,445.92,445.92,445.92,445.92,445.92,445.92,445.92,445.92,445.92,445.92,458.04,458.04,458.04,458.04,458.04,458.04,458.04,458.04,466.52,466.52,466.52,466.52,466.52,466.52,466.52,466.52,481.06,481.06,481.06,466.52,466.52,466.52,466.52,481.06,481.06,466.52,466.52,466.52,466.52,466.52,458.04,458.04,458.04,445.92,445.92,445.92,437.44,437.44,437.44,424.11,424.11,411.99,409.56,409.56,407.14,403.51,403.51,401.08,401.08,401.08,398.66,398.66,398.66,395.02,395.02,395.02,392.60,390.18,390.18,386.54,384.12,384.12,384.12,380.48,380.48,380.48,380.48,380.48,375.64,375.64,375.64,372.00,369.58,369.58,369.58,369.58,369.58,367.15,363.52,363.52,361.09,361.09,361.09,355.04,352.61,352.61,352.61,350.19,350.19,350.19,346.55,346.55,346.55,344.13,344.13,341.71,341.71,341.71,338.07,335.65,335.65,335.65,333.22,333.22,333.22,329.59,329.59,329.59,327.16,327.16,327.16,327.16,327.16,327.16,321.11,321.11,321.11,321.11,321.11,318.68,318.68,318.68,318.68,312.62,312.62,312.62,310.20,310.20,306.56,306.56,306.56,306.56,306.56,306.56,304.14,304.14,304.14,302.93,302.93,302.93,302.93,302.93,302.93,302.93,301.72,301.72,301.72,301.72,301.72,300.51,300.51,300.51,300.51,299.29,299.29,299.29,299.29,299.29,299.29,299.29,299.29,298.08,298.08,298.08,298.08,298.08,298.08,296.87,296.87,296.87,296.87,295.66,295.66,295.66,295.66,295.66,295.66,295.66,295.66,295.66,294.45,294.45,294.45,294.45,294.45,293.24,293.24,293.24,293.24,293.24,293.24,293.24,293.24,293.24,293.24,292.02,292.02,290.81,290.81,290.81,290.81,290.81,290.81,290.81,289.60,289.60,289.60,289.60,289.60,289.60,289.60,289.60,289.60,289.60,289.60,288.39,288.39,288.39,288.39,288.39,288.39,288.39,288.39,288.39,288.39,288.39,288.39,288.39,288.39,288.39,288.39,287.18,287.18,287.18,287.18,287.18,287.18,287.18,287.18,287.18,287.18,287.18,287.18,287.18,287.18,287.18,287.18,287.18,287.18,287.18,287.18,287.18,287.18,287.18,287.18,287.18,287.18,287.18,287.18,287.18,287.18,287.18,287.18,287.18,287.18,287.18,287.18,287.18,287.18,287.18,287.18,287.18,287.18,287.18
481.06,481.06,481.06,481.06,481.06,481.06,491.96,491.96,491.96,491.96,491.96,491.96,491.96,491.96,491.96,491.96,491.96,491.96,491.96,491.96,491.96,491.96,494.39,494.39,494.39,494.39,498.02,498.02,498.02,498.02,500.45,500.45,500.45,500.45,500.45,500.45,505.29,505.29,505.29,505.29,505.29,505.29,505.29,505.29,505.29,505.29,505.29,505.29,505.29,505.29,505.29,505.29,505.29,506.51,506.51,506.51,506.51,508.93,508.93,506.51,505.29,505.29,500.45,498.02,498.02,494.39,491.96,491.96,491.96,481.06,481.06,466.52,458.04,458.04,458.04,458.04,458.04,458.04,458.04,458.04,458.04,458.04,458.04,458.04,458.04,458.04,458.04,458.04,458.04,458.04,466.52,466.52,466.52,466.52,466.52,466.52,466.52,466.52,481.06,481.06,481.06,481.06,481.06,481.06,481.06,466.52,466.52,466.52,466.52,458.04,458.04,458.04,458.04,458.04,458.04,458.04,458.04,458.04,458.04,458.04,458.04,458.04,458.04,458.04,458.04,445.92,445.92,445.92,445.92,445.92,445.92,445.92,445.92,445.92,445.92,445.92,445.92,445.92,445.92,445.92,445.92,445.92,445.92,445.92,445.92,445.92,445.92,445.92,445.92,445.92,445.92,445.92,458.04,458.04,458.04,458.04,458.04,458.04,458.04,458.04,466.52,466.52,466.52,466.52,466.52,466.52,466.52,466.52,481.06,481.06,481.06,466.52,466.52,466.52,466.52,466.52,466.52,466.52,466.52,466.52,466.52,466.52,458.04,458.04,458.04,445.92,445.92,445.92,437.44,437.44,424.11,415.62,415.62,411.99,409.56,409.56,407.14,403.51,403.51,401.08,401.08,401.08,398.66,398.66,398.66,395.02,395.02,395.02,392.60,390.18,390.18,386.54,384.12,384.12,384.12,380.48,380.48,380.48,380.48,380.48,375.64,375.64,375.64,372.00,369.58,369.58,369.58,369.58,369.58,367.15,363.52,363.52,361.09,361.09,361.09,355.04,352.61,352.61,352.61,350.19,350.19,350.19,346.55,346.55,346.55,344.13,344.13,341.71,341.71,341.71,338.07,335.65,335.65,335.65,333.22,333.22,333.22,333.22,333.22,329.59,327.16,327.16,327.16,327.16,327.16,327.16,321.11,321.11,321.11,321.11,321.11,318.68,318.68,318.68,318.68,312.62,312.62,312.62,310.20,310.20,306.56,306.56,306.56,306.56,306.56,306.56,304.14,304.14,304.14,302.93,302.93,302.93,302.93,302.93,302.93,302.93,301.72,301.72,301.72,301.72,301.72,300.51,300.51,300.51,300.51,300.51,300.51,299.29,299.29,299.29,299.29,299.29,299.29,298.08,298.08,298.08,298.08,298.08,298.08,296.87,296.87,296.87,296.87,295.66,295.66,295.66,295.66,295.66,295.66,295.66,295.66,295.66,294.45,294.45,294.45,294.45,294.45,293.24,293.24,293.24,293.24,293.24,293.24,293.24,293.24,293.24,293.24,292.02,292.02,290.81,290.81,290.81,290.81,290.81,290.81,290.81,289.60,289.60,289.60,289.60,289.60,289.60,289.60,289.60,289.60,289.60,289.60,288.39,288.39,288.39,288.39,288.39,288.39,288.39,288.39,288.39,288.39,288.39,288.39,288.39,288.39,288.39,288.39,287.18,287.18,287.18,287.18,287.18,287.18,287.18,287.18,287.18,287.18,287.18,287.18,287.18,287.18,287.18,287.18,287.18,287.18,287.18,287.18,287.18,287.18,287.18,287.18,287.18,287.18,287.18,287.18,287.18,287.18,287.18,287.18,287.18,287.18,287.18,287.18,287.18,287.18,287.18,287.18,287.18,287.18,287.18
481.06,481.06,481.06,481.06,481.06,481.06,481.06,481.06,481.06,491.96,491.96,491.96,491.96,491.96,491.96,491.96,491.96,491.96,491.96,491.96,491.96,491.96,494.39,494.39,494.39,494.39,494.39,498.02,498.02,498.02,498.02,498.02,498.02,500.45,500.45,500.45,500.45,500.45,500.45,505.29,505.29,505.29,505.29,505.29,505.29,505.29,505.29,505.29,505.29,505.29,505.29,505.29,505.29,506.51,506.51,506.51,506.51,508.93,508.93,506.51,505.29,505.29,500.45,498.02,498.02,494.39,491.96,491.96,491.96,481.06,481.06,466.52,458.04,458.04,458.04,458.04,458.04,458.04,458.04,458.04,458.04,458.04,458.04,458.04,458.04,458.04,458.04,458.04,458.04,458.04,458.04,466.52,466.52,466.52,466.52,466.52,466.52,466.52,481.06,481.06,481.06,481.06,481.06,481.06,481.06,466.52,466.52,466.52,466.52,458.04,458.04,458.04,458.04,458.04,458.04,458.04,458.04,458.04,458.04,458.04,458.04,458.04,458.04,458.04,458.04,445.92,445.92,445.92,445.92,445.92,445.92,445.92,445.92,445.92,445.92,445.92,445.92,445.92,445.92,445.92,445.92,445.92,445.92,445.92,445.92,445.92,445.92,445.92,445.92,445.92,445.92,445.92,458.04,458.04,458.04,458.04,458.04,458.04,458.04,458.04,466.52,466.52,466.52,466.52,466.52,466.52,466.52,466.52,466.52,466.52,466.52,466.52,481.06,481.06,466.52,466.52,466.52,466.52,466.52,466.52,466.52,466.52,458.04,458.04,458.04,445.92,445.92,445.92,437.44,437.44,424.11,415.62,415.62,411.99,409.56,409.56,407.14,403.51,403.51,401.08,401.08,401.08,398.66,398.66,398.66,395.02,395.02,395.02,392.60,390.18,390.18,386.54,384.12,384.12,384.12,380.48,380.48,380.48,380.48,380.48,375.64,375.64,375.64,372.00,369.58,369.58,369.58,369.58,369.58,367.15,363.52,363.52,361.09,361.09,361.09,355.04,352.61,352.61,352.61,352.61,352.61,350.19,346.55,346.55,346.55,344.13,344.13,341.71,341.71,341.71,338.07,338.07,338.07,335.65,333.22,333.22,333.22,333.22,333.22,329.59,327.16,327.16,327.16,327.16,327.16,327.16,321.11,321.11,321.11,321.11,321.11,318.68,318.68,318.68,318.68,312.62,312.62,312.62,310.20,310.20,306.56,306.56,306.56,306.56,306.56,306.56,304.14,304.14,304.14,302.93,302.93,302.93,302.93,302.93,302.93,302.93,301.72,301.72,301.72,301.72,301.72,300.51,300.51,300.51,300.51,300.51,300.51,299.29,299.29,299.29,299.29,299.29,299.29,298.08,298.08,298.08,298.08,298.08,298.08,296.87,296.87,296.87,296.87,295.66,295.66,295.66,295.66,295.66,295.66,295.66,295.66,295.66,294.45,294.45,294.45,294.45,294.45,293.24,293.24,293.24,293.24,293.24,293.24,293.24,293.24,293.24,293.24,293.24,293.24,292.02,290.81,290.81,290.81,290.81,290.81,290.81,289.60,289.60,289.60,289.60,289.60,289.60,289.60,289.60,289.60,289.60,289.60,288.39,288.39,288.39,288.39,288.39,288.39,288.39,288.39,288.39,288.39,288.39,288.39,288.39,288.39,288.39,288.39,287.18,287.18,287.18,287.18,287.18,287.18,287.18,287.18,287.18,287.18,287.18,287.18,287.18,287.18,287.18,287.18,287.18,287.18,287.18,287.18,287.18,287.18,287.18,287.18,287.18,287.18,287.18,287.18,287.18,287.18,287.18,287.18,287.18,287.18,287.18,287.18,287.18,287.18,287.18,287.18,287.18,287.18,287.18
481.06,481.06,481.06,481.06,481.06,481.06,481.06,481.06,481.06,491.96,491.96,491.96,491.96,491.96,491.96,491.96,491.96,491.96,491.96,491.96,491.96,491.96,491.96,494.39,494.39,494.39,494.39,498.02,498.02,498.02,498.02,498.02,498.02,498.02,500.45,500.45,500.45,500.45,500.45,500.45,500.45,500.45,505.29,505.29,505.29,505.29,505.29,505.29,505.29,505.29,505.29,505.29,505.29,506.51,506.51,506.51,506.51,508.93,508.93,506.51,505.29,505.29,500.45,498.02,498.02,494.39,491.96,491.96,491.96,481.06,481.06,458.04,458.04,458.04,458.04,458.04,458.04,458.04,458.04,458.04,458.04,445.92,445.92,445.92,445.92,445.92,458.04,458.04,458.04,458.04,458.04,466.52,466.52,466.52,466.52,466.52,481.06,481.06,481.06,481.06,481.06,481.06,481.06,481.06,481.06,481.06,481.06,466.52,466.52,458.04,458.04,458.04,458.04,458.04,458.04,458.04,458.04,458.04,458.04,458.04,458.04,458.04,458.04,458.04,458.04,458.04,458.04,445.92,445.92,445.92,445.92,445.92,445.92,445.92,445.92,445.92,445.92,445.92,445.92,445.92,445.92,445.92,445.92,445.92,445.92,445.92,445.92,445.92,445.92,458.04,458.04,458.04,458.04,458.04,458.04,458.04,466.52,466.52,466.52,466.52,466.52,466.52,466.52,466.52,466.52,466.52,466.52,466.52,466.52,466.52,466.52,466.52,481.06,481.06,466.52,466.52,466.52,466.52,466.52,466.52,466.52,466.52,458.04,458.04,458.04,445.92,445.92,437.44,437.44,437.44,424.11,415.62,415.62,411.99,409.56,409.56,407.14,403.51,403.51,401.08,401.08,401.08,398.66,398.66,398.66,395.02,392.60,392.60,392.60,390.18,390.18,386.54,384.12,384.12,384.12,380.48,380.48,380.48,380.48,380.48,375.64,375.64,375.64,372.00,372.00,372.00,369.58,369.58,369.58,369.58,363.52,363.52,361.09,361.09,361.09,361.09,355.04,355.04,352.61,352.61,352.61,350.19,346.55,346.55,346.55,344.13,344.13,341.71,341.71,341.71,341.71,338.07,338.07,335.65,335.65,335.65,333.22,333.22,333.22,329.59,327.16,327.16,327.16,327.16,327.16,327.16,327.16,327.16,321.11,321.11,321.11,318.68,318.68,318.68,318.68,318.68,318.68,312.62,310.20,310.20,306.56,306.56,306.56,306.56,306.56,306.56,304.14,304.14,304.14,302.93,302.93,302.93,302.93,302.93,302.93,302.93,301.72,301.72,301.72,301.72,301.72,300.51,300.51,300.51,300.51,300.51,300.51,299.29,299.29,299.29,299.29,299.29,299.29,298.08,298.08,298.08,298.08,298.08,298.08,296.87,296.87,296.87,296.87,295.66,295.66,295.66,295.66,295.66,295.66,295.66,295.66,295.66,295.66,295.66,294.45,294.45,294.45,294.45,293.24,293.24,293.24,293.24,293.24,293.24,293.24,293.24,293.24,293.24,293.24,292.02,290.81,290.81,290.81,290.81,290.81,290.81,290.81,290.81,289.60,289.60,289.60,289.60,289.60,289.60,289.60,289.60,289.60,288.39,288.39,288.39,288.39,288.39,288.39,288.39,288.39,288.39,288.39,288.39,288.39,288.39,288.39,288.39,287.18,287.18,287.18,287.18,287.18,287.18,287.18,287.18,287.18,287.18,287.18,287.18,287.18,287.18,287.18,287.18,287.18,287.18,287.18,287.18,287.18,287.18,287.18,287.18,287.18,287.18,287.18,287.18,287.18,287.18,287.18,287.18,287.18,287.18,287.18,287.18,287.18,287.18,287.18,287.18,287.18,287.18,287.18,287.18
481.06,481.06,481.06,481.06,481.06,481.06,481.06,481.06,481.06,491.96,491.96,491.96,491.96,491.96,491.96,491.96,491.96,491.96,491.96,491.96,491.96,491.96,491.96,494.39,494.39,494.39,494.39,498.02,498.02,498.02,498.02,498.02,498.02,498.02,500.45,500.45,500.45,500.45,500.45,500.45,500.45,500.45,500.45,505.29,505.29,505.29,505.29,505.29,505.29,505.29,505.29,505.29,505.29,506.51,506.51,506.51,506.51,508.93,508.93,506.51,505.29,505.29,500.45,498.02,498.02,494.39,491.96,491.96,481.06,466.52,466.52,458.04,445.92,445.92,445.92,445.92,445.92,445.92,445.92,458.04,458.04,445.92,445.92,445.92,445.92,445.92,458.04,458.04,458.04,458.04,458.04,466.52,466.52,466.52,466.52,466.52,481.06,481.06,481.06,481.06,481.06,481.06,481.06,481.06,481.06,481.06,481.06,466.52,466.52,458.04,458.04,458.04,458.04,458.04,458.04,458.04,458.04,458.04,458.04,458.04,458.04,458.04,458.04,458.04,458.04,458.04,458.04,445.92,445.92,445.92,445.92,445.92,445.92,445.92,445.92,445.92,445.92,445.92,445.92,445.92,445.92,445.92,458.04,458.04,458.04,458.04,458.04,458.04,458.04,466.52,466.52,466.52,466.52,481.06,481.06,481.06,481.06,481.06,481.06,481.06,481.06,481.06,481.06,481.06,481.06,481.06,481.06,481.06,481.06,481.06,481.06,481.06,481.06,481.06,481.06,481.06,481.06,481.06,481.06,481.06,481.06,481.06,466.52,466.52,458.04,445.92,445.92,437.44,437.44,437.44,424.11,415.62,415.62,409.56,409.56,408.35,407.14,403.51,403.51,401.08,401.08,401.08,398.66,398.66,398.66,395.02,392.60,392.60,392.60,390.18,390.18,386.54,384.12,384.12,380.48,380.48,380.48,380.48,380.48,380.48,375.64,375.64,375.64,372.00,372.00,372.00,369.58,369.58,369.58,369.58,363.52,363.52,361.09,361.09,361.09,361.09,355.04,355.04,352.61,352.61,352.61,350.19,346.55,346.55,346.55,344.13,344.13,344.13,341.71,341.71,341.71,338.07,338.07,335.65,335.65,335.65,333.22,333.22,333.22,329.59,327.16,327.16,327.16,327.16,327.16,327.16,327.16,327.16,321.11,321.11,321.11,318.68,318.68,318.68,318.68,318.68,318.68,312.62,312.62,312.62,310.20,306.56,306.56,306.56,306.56,306.56,304.14,304.14,304.14,304.14,302.93,302.93,302.93,302.93,302.93,302.93,301.72,301.72,301.72,301.72,301.72,300.51,300.51,300.51,300.51,300.51,300.51,299.29,299.29,299.29,299.29,299.29,299.29,298.08,298.08,298.08,298.08,298.08,298.08,296.87,296.87,296.87,296.87,295.66,295.66,295.66,295.66,295.66,295.66,295.66,295.66,295.66,295.66,295.66,294.45,294.45,294.45,294.45,293.24,293.24,293.24,293.24,293.24,293.24,293.24,293.24,293.24,293.24,293.24,292.02,290.81,290.81,290.81,290.81,290.81,290.81,289.60,289.60,289.60,289.60,289.60,289.60,289.60,289.60,289.60,289.60,289.60,288.39,288.39,288.39,288.39,288.39,288.39,288.39,288.39,288.39,288.39,288.39,288.39,288.39,288.39,288.39,287.18,287.18,287.18,287.18,287.18,287.18,287.18,287.18,287.18,287.18,287.18,287.18,287.18,287.18,287.18,287.18,287.18,287.18,287.18,287.18,287.18,287.18,287.18,287.18,287.18,287.18,287.18,287.18,287.18,287.18,287.18,287.18,287.18,287.18,287.18,287.18,287.18,287.18,287.18,287.18,287.18,287.18,287.18,287.18
481.06,481.06,481.06,481.06,481.06,481.06,481.06,481.06,481.06,481.06,491.96,491.96,491.96,491.96,491.96,491.96,491.96,491.96,491.96,491.96,491.96,491.96,491.96,494.39,494.39,494.39,494.39,498.02,498.02,498.02,498.02,498.02,498.02,498.02,498.02,498.02,500.45,500.45,500.45,500.45,500.45,500.45,500.45,505.29,505.29,505.29,505.29,505.29,505.29,505.29,505.29,505.29,505.29,506.51,506.51,506.51,506.51,508.93,508.93,506.51,505.29,505.29,500.45,498.02,498.02,494.39,491.96,491.96,481.06,466.52,466.52,458.04,445.92,445.92,445.92,445.92,445.92,445.92,445.92,445.92,445.92,445.92,445.92,445.92,445.92,445.92,458.04,458.04,458.04,466.52,466.52,466.52,466.52,481.06,481.06,481.06,491.96,491.96,491.96,491.96,491.96,491.96,491.96,491.96,491.96,481.06,481.06,481.06,466.52,466.52,466.52,466.52,466.52,466.52,466.52,466.52,466.52,466.52,466.52,458.04,458.04,458.04,458.04,458.04,458.04,458.04,458.04,445.92,445.92,445.92,445.92,445.92,445.92,445.92,445.92,445.92,445.92,445.92,445.92,445.92,445.92,445.92,458.04,458.04,458.04,458.04,458.04,458.04,458.04,466.52,466.52,466.52,466.52,481.06,481.06,481.06,481.06,481.06,481.06,481.06,481.06,481.06,481.06,481.06,481.06,481.06,481.06,481.06,481.06,491.96,491.96,491.96,491.96,491.96,491.96,491.96,491.96,491.96,491.96,491.96,491.96,491.96,481.06,481.06,466.52,458.04,458.04,445.92,437.44,437.44,424.11,415.62,415.62,409.56,409.56,408.35,407.14,403.51,403.51,401.08,401.08,401.08,398.66,398.66,398.66,395.02,392.60,392.60,392.60,390.18,390.18,386.54,384.12,384.12,380.48,380.48,380.48,380.48,380.48,380.48,375.64,375.64,375.64,375.64,372.00,372.00,369.58,369.58,369.58,369.58,367.15,367.15,363.52,361.09,361.09,361.09,355.04,355.04,352.61,352.61,352.61,350.19,346.55,346.55,346.55,344.13,344.13,344.13,341.71,341.71,341.71,338.07,338.07,335.65,335.65,335.65,333.22,333.22,333.22,329.59,327.16,327.16,327.16,327.16,327.16,327.16,327.16,327.16,321.11,321.11,321.11,318.68,318.68,318.68,318.68,312.62,312.62,312.62,312.62,312.62,310.20,306.56,306.56,306.56,306.56,306.56,306.56,304.14,304.14,304.14,302.93,302.93,302.93,302.93,302.93,302.93,302.93,302.93,301.72,301.72,301.72,300.51,300.51,300.51,300.51,300.51,300.51,300.51,299.29,299.29,299.29,299.29,299.29,299.29,298.08,298.08,298.08,298.08,298.08,298.08,296.87,296.87,296.87,295.66,295.66,295.66,295.66,295.66,295.66,295.66,295.66,295.66,295.66,295.66,295.66,295.66,295.66,294.45,294.45,294.45,293.24,293.24,293.24,293.24,293.24,293.24,293.24,293.24,293.24,292.02,290.81,290.81,290.81,290.81,290.81,290.81,289.60,289.60,289.60,289.60,289.60,289.60,289.60,289.60,289.60,289.60,289.60,288.39,288.39,288.39,288.39,288.39,288.39,288.39,288.39,288.39,288.39,288.39,288.39,288.39,288.39,288.39,287.18,287.18,287.18,287.18,287.18,287.18,287.18,287.18,287.18,287.18,287.18,287.18,287.18,287.18,287.18,287.18,287.18,287.18,287.18,287.18,287.18,287.18,287.18,287.18,287.18,287.18,287.18,287.18,287.18,287.18,287.18,287.18,287.18,287.18,287.18,287.18,287.18,287.18,287.18,287.18,287.18,287.18,287.18,287.18
481.06,481.06,481.06,481.06,481.06,481.06,481.06,481.06,481.06,481.06,481.06,491.96,491.96,491.96,491.96,491.96,491.96,491.96,491.96,491.96,491.96,491.96,491.96,494.39,494.39,494.39,494.39,494.39,494.39,494.39,498.02,498.02,498.02,498.02,498.02,498.02,498.02,500.45,500.45,500.45,500.45,500.45,500.45,500.45,505.29,505.29,505.29,505.29,505.29,505.29,505.29,505.29,505.29,506.51,506.51,506.51,506.51,508.93,508.93,506.51,505.29,505.29,500.45,498.02,498.02,491.96,491.96,491.96,481.06,466.52,458.04,445.92,445.92,437.44,437.44,437.44,445.92,445.92,445.92,445.92,445.92,458.04,458.04,458.04,458.04,458.04,458.04,458.04,466.52,481.06,481.06,481.06,481.06,491.96,491.96,491.96,491.96,491.96,491.96,494.39,494.39,491.96,491.96,491.96,491.96,491.96,491.96,491.96,481.06,481.06,481.06,481.06,481.06,481.06,481.06,481.06,481.06,466.52,466.52,466.52,466.52,466.52,466.52,466.52,466.52,458.04,458.04,458.04,458.04,458.04,458.04,458.04,445.92,445.92,445.92,458.04,458.04,445.92,445.92,458.04,458.04,458.04,458.04,466.52,466.52,466.52,466.52,466.52,481.06,481.06,491.96,491.96,491.96,491.96,491.96,491.96,491.96,491.96,491.96,481.06,481.06,481.06,481.06,481.06,481.06,481.06,481.06,481.06,481.06,491.96,491.96,491.96,491.96,491.96,491.96,491.96,491.96,491.96,491.96,491.96,491.96,491.96,481.06,481.06,466.52,458.04,458.04,445.92,437.44,437.44,424.11,411.99,411.99,409.56,407.14,407.14,407.14,403.51,403.51,401.08,401.08,401.08,398.66,398.66,398.66,395.02,392.60,392.60,392.60,390.18,390.18,386.54,384.12,384.12,380.48,380.48,380.48,380.48,380.48,380.48,380.48,375.64,375.64,375.64,375.64,375.64,372.00,369.58,369.58,369.58,367.15,367.15,363.52,361.09,361.09,361.09,355.04,355.04,352.61,352.61,352.61,350.19,346.55,346.55,346.55,344.13,344.13,344.13,341.71,341.71,341.71,338.07,338.07,335.65,335.65,335.65,333.22,333.22,333.22,329.59,327.16,327.16,327.16,327.16,327.16,327.16,327.16,327.16,321.11,321.11,321.11,318.68,318.68,318.68,318.68,312.62,312.62,312.62,312.62,312.62,310.20,306.56,306.56,306.56,306.56,306.56,306.56,304.14,304.14,304.14,302.93,302.93,302.93,302.93,302.93,302.93,301.72,301.72,301.72,301.72,301.72,300.51,300.51,300.51,300.51,300.51,300.51,300.51,299.29,299.29,299.29,299.29,299.29,299.29,298.08,298.08,298.08,298.08,298.08,298.08,296.87,296.87,296.87,296.87,296.87,295.66,295.66,295.66,295.66,295.66,295.66,295.66,295.66,295.66,295.66,295.66,295.66,294.45,294.45,294.45,294.45,293.24,293.24,293.24,293.24,293.24,293.24,293.24,293.24,292.02,290.81,290.81,290.81,290.81,290.81,290.81,289.60,289.60,289.60,289.60,289.60,289.60,289.60,289.60,289.60,289.60,289.60,288.39,288.39,288.39,288.39,288.39,288.39,288.39,288.39,288.39,288.39,288.39,288.39,288.39,288.39,288.39,287.18,287.18,287.18,287.18,287.18,287.18,287.18,287.18,287.18,287.18,287.18,287.18,287.18,287.18,287.18,287.18,287.18,287.18,287.18,287.18,287.18,287.18,287.18,287.18,287.18,287.18,287.18,287.18,287.18,287.18,287.18,287.18,287.18,287.18,287.18,287.18,287.18,287.18,287.18,287.18,287.18,287.18,287.18,287.18
481.06,481.06,481.06,481.06,481.06,481.06,481.06,481.06,481.06,481.06,481.06,491.96,491.96,491.96,491.96,491.96,491.96,491.96,491.96,491.96,491.96,491.96,491.96,494.39,494.39,494.39,494.39,494.39,494.39,494.39,494.39,494.39,494.39,498.02,498.02,498.02,498.02,498.02,498.02,498.02,498.02,498.02,498.02,500.45,500.45,500.45,500.45,505.29,505.29,505.29,505.29,505.29,505.29,506.51,506.51,506.51,506.51,508.93,506.51,505.29,505.29,505.29,498.02,498.02,494.39,491.96,491.96,481.06,466.52,466.52,458.04,445.92,445.92,437.44,437.44,437.44,437.44,437.44,445.92,445.92,445.92,445.92,458.04,458.04,458.04,458.04,458.04,458.04,466.52,481.06,481.06,481.06,481.06,491.96,491.96,491.96,491.96,491.96,491.96,494.39,494.39,491.96,491.96,491.96,491.96,491.96,491.96,491.96,481.06,481.06,491.96,481.06,481.06,481.06,481.06,481.06,481.06,481.06,481.06,481.06,481.06,481.06,481.06,481.06,481.06,466.52,466.52,466.52,466.52,466.52,458.04,458.04,458.04,458.04,458.04,458.04,458.04,458.04,458.04,458.04,458.04,466.52,466.52,481.06,481.06,481.06,491.96,491.96,491.96,491.96,491.96,491.96,494.39,494.39,491.96,491.96,491.96,491.96,491.96,491.96,491.96,491.96,491.96,491.96,491.96,491.96,491.96,491.96,491.96,491.96,491.96,491.96,491.96,491.96,491.96,491.96,494.39,494.39,494.39,491.96,491.96,491.96,491.96,491.96,481.06,466.52,466.52,445.92,437.44,437.44,424.11,411.99,411.99,409.56,407.14,407.14,407.14,403.51,403.51,401.08,401.08,401.08,398.66,398.66,398.66,395.02,392.60,392.60,392.60,390.18,390.18,386.54,384.12,384.12,380.48,380.48,380.48,380.48,380.48,380.48,380.48,375.64,375.64,375.64,375.64,375.64,372.00,369.58,369.58,369.58,369.58,369.58,363.52,361.09,361.09,361.09,355.04,355.04,352.61,352.61,352.61,350.19,346.55,346.55,346.55,344.13,344.13,344.13,341.71,341.71,341.71,338.07,338.07,335.65,335.65,335.65,333.22,333.22,333.22,329.59,329.59,329.59,327.16,327.16,327.16,327.16,327.16,327.16,321.11,321.11,321.11,318.68,318.68,318.68,318.68,312.62,312.62,312.62,312.62,312.62,310.20,306.56,306.56,306.56,306.56,306.56,306.56,304.14,304.14,304.14,302.93,302.93,302.93,302.93,302.93,302.93,301.72,301.72,301.72,301.72,301.72,300.51,300.51,300.51,300.51,300.51,300.51,300.51,299.29,299.29,299.29,299.29,299.29,299.29,298.08,298.08,298.08,298.08,298.08,298.08,296.87,296.87,296.87,296.87,296.87,295.66,295.66,295.66,295.66,295.66,295.66,295.66,295.66,295.66,295.66,295.66,295.66,294.45,294.45,294.45,294.45,293.24,293.24,293.24,293.24,293.24,293.24,293.24,293.24,292.02,290.81,290.81,290.81,290.81,290.81,290.81,289.60,289.60,289.60,289.60,289.60,289.60,289.60,289.60,289.60,289.60,289.60,288.39,288.39,288.39,288.39,288.39,288.39,288.39,288.39,288.39,288.39,288.39,288.39,288.39,288.39,288.39,287.18,287.18,287.18,287.18,287.18,287.18,287.18,287.18,287.18,287.18,287.18,287.18,287.18,287.18,287.18,287.18,287.18,287.18,287.18,287.18,287.18,287.18,287.18,287.18,287.18,287.18,287.18,287.18,287.18,287.18,287.18,287.18,287.18,287.18,287.18,287.18,287.18,287.18,287.18,287.18,287.18,287.18,287.18,287.18
481.06,481.06,481.06,481.06,481.06,481.06,481.06,481.06,481.06,481.06,481.06,491.96,491.96,491.96,491.96,491.96,491.96,491.96,491.96,491.96,491.96,491.96,491.96,491.96,491.96,491.96,494.39,494.39,494.39,494.39,494.39,494.39,494.39,498.02,498.02,498.02,498.02,498.02,498.02,498.02,498.02,498.02,498.02,500.45,500.45,500.45,500.45,505.29,505.29,505.29,505.29,505.29,505.29,506.51,506.51,506.51,506.51,508.93,506.51,505.29,505.29,505.29,498.02,498.02,494.39,491.96,491.96,481.06,466.52,466.52,445.92,437.44,437.44,437.44,437.44,437.44,437.44,437.44,445.92,445.92,445.92,445.92,458.04,458.04,458.04,458.04,466.52,466.52,481.06,481.06,491.96,491.96,491.96,491.96,491.96,494.39,494.39,498.02,498.02,498.02,498.02,498.02,494.39,494.39,494.39,491.96,491.96,491.96,491.96,491.96,491.96,481.06,481.06,481.06,481.06,481.06,481.06,481.06,481.06,481.06,481.06,481.06,481.06,481.06,481.06,466.52,466.52,466.52,466.52,466.52,458.04,458.04,458.04,458.04,458.04,458.04,458.04,458.04,458.04,458.04,458.04,466.52,466.52,481.06,481.06,481.06,491.96,494.39,494.39,498.02,498.02,498.02,498.02,498.02,498.02,498.02,494.39,494.39,494.39,491.96,491.96,491.96,491.96,491.96,491.96,491.96,491.96,491.96,491.96,491.96,494.39,494.39,494.39,494.39,494.39,498.02,498.02,498.02,498.02,498.02,498.02,494.39,491.96,491.96,491.96,466.52,466.52,458.04,437.44,437.44,424.11,411.99,411.99,409.56,407.14,407.14,407.14,403.51,403.51,401.08,401.08,401.08,398.66,398.66,398.66,395.02,392.60,392.60,392.60,390.18,390.18,386.54,384.12,384.12,380.48,380.48,380.48,380.48,380.48,380.48,380.48,375.64,375.64,375.64,375.64,375.64,372.00,369.58,369.58,369.58,369.58,369.58,363.52,361.09,361.09,361.09,355.04,355.04,352.61,350.19,350.19,346.55,346.55,346.55,346.55,344.13,344.13,344.13,341.71,341.71,341.71,338.07,338.07,335.65,335.65,335.65,333.22,333.22,333.22,329.59,329.59,329.59,327.16,327.16,327.16,327.16,327.16,327.16,321.11,321.11,321.11,318.68,318.68,318.68,318.68,312.62,312.62,312.62,312.62,312.62,310.20,306.56,306.56,306.56,306.56,306.56,306.56,304.14,304.14,304.14,302.93,302.93,302.93,302.93,302.93,302.93,301.72,301.72,301.72,301.72,301.72,300.51,300.51,300.51,300.51,300.51,300.51,300.51,299.29,299.29,299.29,299.29,299.29,299.29,298.08,298.08,298.08,298.08,298.08,298.08,296.87,296.87,296.87,296.87,296.87,295.66,295.66,295.66,295.66,295.66,295.66,295.66,295.66,295.66,295.66,295.66,295.66,295.66,294.45,294.45,294.45,294.45,294.45,293.24,293.24,293.24,293.24,293.24,293.24,292.02,290.81,290.81,290.81,290.81,290.81,290.81,289.60,289.60,289.60,289.60,289.60,289.60,289.60,289.60,289.60,289.60,289.60,288.39,288.39,288.39,288.39,288.39,288.39,288.39,288.39,288.39,288.39,288.39,288.39,288.39,288.39,288.39,287.18,287.18,287.18,287.18,287.18,287.18,287.18,287.18,287.18,287.18,287.18,287.18,287.18,287.18,287.18,287.18,287.18,287.18,287.18,287.18,287.18,287.18,287.18,287.18,287.18,287.18,287.18,287.18,287.18,287.18,287.18,287.18,287.18,287.18,287.18,287.18,287.18,287.18,287.18,287.18,287.18,287.18,287.18,287.18
481.06,481.06,481.06,481.06,481.06,481.06,481.06,481.06,481.06,481.06,481.06,491.96,491.96,491.96,491.96,491.96,491.96,491.96,491.96,491.96,491.96,491.96,491.96,491.96,491.96,491.96,491.96,491.96,491.96,494.39,494.39,494.39,494.39,494.39,494.39,494.39,494.39,494.39,494.39,498.02,498.02,498.02,498.02,498.02,498.02,498.02,498.02,500.45,500.45,500.45,505.29,505.29,505.29,505.29,506.51,506.51,506.51,508.93,506.51,505.29,505.29,505.29,498.02,498.02,494.39,491.96,491.96,481.06,466.52,466.52,445.92,437.44,437.44,437.44,437.44,437.44,437.44,437.44,445.92,445.92,445.92,458.04,458.04,458.04,458.04,466.52,481.06,481.06,481.06,491.96,491.96,491.96,494.39,494.39,494.39,498.02,500.45,500.45,500.45,500.45,500.45,500.45,498.02,498.02,498.02,494.39,494.39,494.39,491.96,491.96,491.96,491.96,491.96,491.96,491.96,491.96,491.96,491.96,491.96,491.96,491.96,491.96,481.06,481.06,481.06,481.06,481.06,481.06,481.06,481.06,481.06,481.06,481.06,481.06,481.06,481.06,481.06,481.06,481.06,481.06,481.06,481.06,491.96,491.96,491.96,491.96,491.96,494.39,494.39,498.02,498.02,498.02,498.02,498.02,498.02,498.02,494.39,494.39,494.39,491.96,491.96,491.96,491.96,491.96,491.96,491.96,491.96,491.96,491.96,491.96,494.39,494.39,494.39,494.39,494.39,498.02,498.02,498.02,498.02,498.02,498.02,498.02,494.39,494.39,494.39,481.06,481.06,458.04,437.44,437.44,424.11,411.99,411.99,409.56,407.14,407.14,407.14,403.51,403.51,401.08,401.08,401.08,398.66,398.66,398.66,395.02,392.60,392.60,392.60,390.18,390.18,386.54,384.12,384.12,380.48,380.48,380.48,380.48,380.48,380.48,380.48,380.48,380.48,375.64,375.64,375.64,375.64,372.00,372.00,369.58,369.58,369.58,367.15,361.09,361.09,361.09,361.09,355.04,352.61,350.19,350.19,346.55,346.55,346.55,346.55,344.13,344.13,344.13,341.71,341.71,341.71,338.07,338.07,335.65,335.65,335.65,333.22,333.22,333.22,333.22,329.59,329.59,327.16,327.16,327.16,327.16,327.16,327.16,321.11,321.11,321.11,318.68,318.68,318.68,318.68,312.62,312.62,312.62,312.62,312.62,310.20,306.56,306.56,306.56,306.56,306.56,306.56,304.14,304.14,304.14,302.93,302.93,302.93,302.93,302.93,302.93,301.72,301.72,301.72,301.72,301.72,300.51,300.51,300.51,300.51,300.51,300.51,300.51,299.29,299.29,299.29,299.29,299.29,299.29,298.08,298.08,298.08,298.08,298.08,298.08,296.87,296.87,296.87,296.87,296.87,295.66,295.66,295.66,295.66,295.66,295.66,295.66,295.66,295.66,295.66,295.66,295.66,295.66,295.66,294.45,294.45,294.45,294.45,293.24,293.24,293.24,293.24,293.24,293.24,292.02,292.02,290.81,290.81,290.81,290.81,290.81,289.60,289.60,289.60,289.60,289.60,289.60,289.60,289.60,289.60,289.60,289.60,288.39,288.39,288.39,288.39,288.39,288.39,288.39,288.39,288.39,288.39,288.39,288.39,288.39,287.18,287.18,287.18,287.18,287.18,287.18,287.18,287.18,287.18,287.18,287.18,287.18,287.18,287.18,287.18,287.18,287.18,287.18,287.18,287.18,287.18,287.18,287.18,287.18,287.18,287.18,287.18,287.18,287.18,287.18,287.18,287.18,287.18,287.18,287.18,287.18,287.18,287.18,287.18,287.18,287.18,287.18,287.18,287.18,287.18,287.18
481.06,481.06,481.06,481.06,481.06,481.06,481.06,481.06,481.06,481.06,481.06,491.96,491.96,491.96,491.96,491.96,491.96,491.96,491.96,491.96,491.96,491.96,491.96,491.96,491.96,491.96,491.96,491.96,491.96,491.96,491.96,491.96,491.96,491.96,491.96,491.96,491.96,491.96,494.39,494.39,494.39,494.39,494.39,494.39,494.39,494.39,498.02,498.02,498.02,500.45,505.29,505.29,505.29,505.29,506.51,506.51,508.93,508.93,508.93,506.51,506.51,505.29,498.02,498.02,494.39,491.96,491.96,481.06,466.52,466.52,445.92,437.44,437.44,437.44,437.44,437.44,437.44,437.44,445.92,445.92,445.92,458.04,458.04,458.04,458.04,466.52,481.06,481.06,481.06,491.96,491.96,491.96,494.39,494.39,494.39,498.02,500.45,505.29,505.29,505.29,505.29,505.29,500.45,500.45,500.45,498.02,494.39,494.39,494.39,491.96,491.96,491.96,491.96,491.96,491.96,491.96,491.96,491.96,491.96,491.96,491.96,491.96,491.96,491.96,491.96,491.96,491.96,491.96,491.96,491.96,491.96,491.96,491.96,491.96,491.96,491.96,491.96,491.96,491.96,491.96,491.96,491.96,491.96,494.39,494.39,494.39,498.02,498.02,498.02,500.45,500.45,500.45,500.45,500.45,500.45,500.45,498.02,498.02,498.02,494.39,494.39,494.39,494.39,494.39,494.39,494.39,494.39,494.39,494.39,494.39,498.02,498.02,498.02,498.02,498.02,498.02,500.45,500.45,500.45,500.45,500.45,498.02,494.39,494.39,494.39,481.06,481.06,458.04,437.44,437.44,424.11,411.99,411.99,409.56,407.14,407.14,403.51,403.51,403.51,401.08,401.08,401.08,398.66,398.66,398.66,395.02,392.60,392.60,392.60,390.18,390.18,386.54,384.12,384.12,380.48,380.48,380.48,380.48,380.48,380.48,380.48,380.48,380.48,380.48,375.64,375.64,375.64,372.00,372.00,369.58,369.58,369.58,369.58,361.09,361.09,361.09,361.09,355.04,352.61,350.19,350.19,346.55,346.55,346.55,346.55,344.13,344.13,344.13,341.71,341.71,341.71,338.07,338.07,338.07,335.65,335.65,335.65,333.22,333.22,333.22,329.59,329.59,327.16,327.16,327.16,327.16,327.16,327.16,321.11,321.11,321.11,318.68,318.68,318.68,318.68,318.68,318.68,312.62,312.62,312.62,310.20,306.56,306.56,306.56,306.56,306.56,306.56,304.14,304.14,304.14,302.93,302.93,302.93,302.93,302.93,302.93,302.93,302.93,301.72,301.72,301.72,301.72,300.51,300.51,300.51,300.51,300.51,300.51,299.29,299.29,299.29,299.29,299.29,299.29,298.08,298.08,298.08,298.08,298.08,298.08,296.87,296.87,296.87,296.87,296.87,295.66,295.66,295.66,295.66,295.66,295.66,295.66,295.66,295.66,295.66,295.66,295.66,295.66,295.66,294.45,294.45,294.45,294.45,294.45,294.45,293.24,293.24,293.24,293.24,292.02,292.02,290.81,290.81,290.81,290.81,290.81,289.60,289.60,289.60,289.60,289.60,289.60,289.60,289.60,289.60,289.60,289.60,288.39,288.39,288.39,288.39,288.39,288.39,288.39,288.39,288.39,288.39,288.39,288.39,288.39,288.39,287.18,287.18,287.18,287.18,287.18,287.18,287.18,287.18,287.18,287.18,287.18,287.18,287.18,287.18,287.18,287.18,287.18,287.18,287.18,287.18,287.18,287.18,287.18,287.18,287.18,287.18,287.18,287.18,287.18,287.18,287.18,287.18,287.18,287.18,287.18,287.18,287.18,287.18,287.18,287.18,287.18,287.18,287.18,287.18,287.18
481.06,481.06,481.06,481.06,481.06,481.06,481.06,481.06,481.06,481.06,481.06,481.06,491.96,491.96,491.96,491.96,491.96,491.96,491.96,491.96,491.96,491.96,491.96,491.96,491.96,491.96,491.96,491.96,491.96,491.96,491.96,491.96,491.96,491.96,491.96,491.96,491.96,491.96,494.39,494.39,494.39,494.39,494.39,494.39,494.39,494.39,498.02,498.02,498.02,500.45,500.45,500.45,505.29,505.29,506.51,506.51,506.51,508.93,508.93,506.51,506.51,505.29,500.45,500.45,494.39,491.96,491.96,481.06,466.52,466.52,445.92,437.44,437.44,437.44,437.44,437.44,437.44,437.44,445.92,445.92,445.92,458.04,458.04,466.52,466.52,466.52,481.06,481.06,491.96,491.96,494.39,494.39,498.02,498.02,498.02,500.45,505.29,505.29,505.29,505.29,505.29,505.29,500.45,500.45,500.45,498.02,494.39,494.39,494.39,491.96,491.96,491.96,491.96,491.96,491.96,491.96,491.96,491.96,491.96,491.96,491.96,491.96,491.96,491.96,491.96,491.96,491.96,491.96,491.96,491.96,491.96,491.96,491.96,494.39,494.39,494.39,494.39,494.39,494.39,494.39,494.39,494.39,498.02,498.02,498.02,498.02,500.45,505.29,505.29,505.29,505.29,505.29,505.29,505.29,505.29,505.29,500.45,500.45,500.45,498.02,498.02,498.02,498.02,498.02,494.39,494.39,494.39,498.02,498.02,498.02,498.02,498.02,498.02,500.45,500.45,500.45,505.29,505.29,505.29,505.29,505.29,505.29,500.45,500.45,494.39,494.39,479.85,464.09,445.92,445.92,424.11,411.99,411.99,409.56,407.14,407.14,403.51,401.08,401.08,401.08,401.08,401.08,398.66,395.02,395.02,395.02,392.60,392.60,392.60,390.18,390.18,386.54,384.12,384.12,380.48,380.48,380.48,380.48,380.48,380.48,380.48,380.48,380.48,380.48,375.64,375.64,375.64,372.00,372.00,369.58,369.58,369.58,369.58,361.09,361.09,361.09,352.61,352.61,352.61,350.19,350.19,346.55,346.55,346.55,346.55,344.13,344.13,341.71,341.71,341.71,341.71,338.07,338.07,338.07,335.65,335.65,335.65,333.22,333.22,333.22,329.59,329.59,329.59,327.16,327.16,327.16,327.16,327.16,327.16,321.11,321.11,321.11,318.68,318.68,318.68,318.68,318.68,312.62,312.62,312.62,310.20,310.20,310.20,306.56,306.56,306.56,306.56,304.14,304.14,304.14,302.93,302.93,302.93,302.93,302.93,302.93,302.93,302.93,301.72,301.72,301.72,301.72,300.51,300.51,300.51,300.51,300.51,300.51,300.51,300.51,299.29,299.29,299.29,299.29,298.08,298.08,298.08,298.08,298.08,298.08,296.87,296.87,296.87,296.87,296.87,295.66,295.66,295.66,295.66,295.66,295.66,295.66,295.66,295.66,295.66,295.66,295.66,295.66,295.66,294.45,294.45,294.45,294.45,294.45,294.45,293.24,293.24,293.24,293.24,292.02,292.02,290.81,290.81,290.81,290.81,289.60,289.60,289.60,289.60,289.60,289.60,289.60,289.60,289.60,289.60,289.60,289.60,288.39,288.39,288.39,288.39,288.39,288.39,288.39,288.39,288.39,288.39,288.39,288.39,288.39,288.39,288.39,288.39,287.18,287.18,287.18,287.18,287.18,287.18,287.18,287.18,287.18,287.18,287.18,287.18,287.18,287.18,287.18,287.18,287.18,287.18,287.18,287.18,287.18,287.18,287.18,287.18,287.18,287.18,287.18,287.18,287.18,287.18,287.18,287.18,287.18,287.18,287.18,287.18,287.18,287.18,287.18,287.18,287.18,287.18,287.18
481.06,481.06,481.06,481.06,481.06,481.06,481.06,481.06,481.06,481.06,481.06,481.06,481.06,491.96,491.96,491.96,491.96,491.96,491.96,491.96,491.96,491.96,491.96,491.96,491.96,491.96,491.96,491.96,491.96,491.96,491.96,491.96,491.96,491.96,491.96,491.96,491.96,491.96,491.96,491.96,491.96,491.96,491.96,491.96,491.96,491.96,491.96,491.96,494.39,498.02,500.45,500.45,505.29,505.29,506.51,506.51,506.51,508.93,508.93,506.51,506.51,505.29,500.45,500.45,494.39,491.96,491.96,481.06,466.52,466.52,445.92,437.44,437.44,437.44,437.44,437.44,437.44,437.44,445.92,458.04,458.04,458.04,466.52,466.52,466.52,481.06,491.96,491.96,491.96,494.39,498.02,498.02,500.45,500.45,505.29,505.29,505.29,505.29,505.29,505.29,505.29,505.29,505.29,505.29,505.29,500.45,498.02,498.02,498.02,494.39,494.39,491.96,491.96,491.96,491.96,491.96,491.96,491.96,491.96,491.96,491.96,491.96,491.96,491.96,491.96,494.39,494.39,494.39,494.39,494.39,494.39,494.39,494.39,494.39,494.39,494.39,494.39,494.39,494.39,494.39,494.39,494.39,498.02,498.02,498.02,498.02,500.45,505.29,505.29,505.29,505.29,505.29,505.29,505.29,505.29,505.29,500.45,500.45,500.45,498.02,498.02,498.02,498.02,498.02,494.39,494.39,494.39,498.02,498.02,500.45,500.45,500.45,500.45,505.29,505.29,505.29,505.29,505.29,505.29,505.29,505.29,505.29,505.29,505.29,498.02,498.02,481.06,471.36,445.92,445.92,437.44,415.62,415.62,409.56,407.14,407.14,403.51,401.08,401.08,401.08,401.08,401.08,398.66,395.02,395.02,395.02,392.60,392.60,392.60,390.18,390.18,386.54,384.12,384.12,384.12,380.48,380.48,380.48,380.48,380.48,380.48,380.48,380.48,380.48,375.64,375.64,375.64,372.00,372.00,369.58,369.58,369.58,369.58,361.09,361.09,361.09,352.61,352.61,352.61,350.19,350.19,346.55,346.55,346.55,346.55,344.13,344.13,341.71,341.71,341.71,341.71,338.07,338.07,338.07,335.65,335.65,335.65,333.22,333.22,333.22,329.59,329.59,329.59,327.16,327.16,327.16,327.16,327.16,327.16,321.11,321.11,321.11,318.68,318.68,318.68,318.68,318.68,312.62,312.62,312.62,310.20,310.20,310.20,306.56,306.56,306.56,306.56,304.14,304.14,304.14,302.93,302.93,302.93,302.93,302.93,302.93,302.93,302.93,301.72,301.72,301.72,301.72,300.51,300.51,300.51,300.51,300.51,300.51,300.51,300.51,299.29,299.29,299.29,299.29,299.29,299.29,298.08,298.08,298.08,298.08,298.08,298.08,296.87,296.87,296.87,296.87,295.66,295.66,295.66,295.66,295.66,295.66,295.66,295.66,295.66,295.66,295.66,295.66,295.66,295.66,294.45,294.45,294.45,294.45,293.24,293.24,293.24,293.24,293.24,292.02,290.81,290.81,290.81,290.81,290.81,289.60,289.60,289.60,289.60,289.60,289.60,289.60,289.60,289.60,289.60,289.60,289.60,288.39,288.39,288.39,288.39,288.39,288.39,288.39,288.39,288.39,288.39,288.39,288.39,288.39,288.39,288.39,288.39,287.18,287.18,287.18,287.18,287.18,287.18,287.18,287.18,287.18,287.18,287.18,287.18,287.18,287.18,287.18,287.18,287.18,287.18,287.18,287.18,287.18,287.18,287.18,287.18,287.18,287.18,287.18,287.18,287.18,287.18,287.18,287.18,287.18,287.18,287.18,287.18,287.18,287.18,287.18,287.18,287.18,287.18,287.18
481.06,481.06,481.06,481.06,481.06,481.06,481.06,481.06,481.06,481.06,481.06,481.06,481.06,481.06,481.06,481.06,491.96,491.96,491.96,491.96,491.96,491.96,491.96,491.96,491.96,491.96,491.96,491.96,491.96,491.96,491.96,491.96,481.06,481.06,481.06,481.06,481.06,481.06,481.06,481.06,481.06,481.06,481.06,481.06,481.06,481.06,491.96,491.96,491.96,494.39,498.02,498.02,500.45,505.29,505.29,505.29,506.51,508.93,508.93,506.51,506.51,505.29,500.45,500.45,494.39,491.96,491.96,481.06,466.52,466.52,445.92,437.44,437.44,437.44,437.44,437.44,437.44,437.44,445.92,458.04,458.04,458.04,466.52,466.52,466.52,491.96,491.96,491.96,494.39,498.02,500.45,500.45,505.29,505.29,505.29,505.29,506.51,506.51,506.51,505.29,505.29,505.29,505.29,505.29,505.29,500.45,498.02,498.02,498.02,494.39,494.39,494.39,494.39,494.39,494.39,494.39,494.39,494.39,494.39,494.39,494.39,494.39,494.39,494.39,494.39,498.02,498.02,498.02,498.02,498.02,498.02,498.02,498.02,500.45,500.45,500.45,498.02,498.02,498.02,498.02,500.45,500.45,500.45,500.45,505.29,505.29,505.29,505.29,505.29,505.29,505.29,505.29,505.29,505.29,505.29,505.29,505.29,505.29,500.45,500.45,500.45,498.02,498.02,498.02,498.02,498.02,498.02,498.02,498.02,500.45,500.45,500.45,500.45,505.29,505.29,505.29,505.29,505.29,505.29,505.29,505.29,505.29,505.29,500.45,498.02,498.02,484.69,481.06,445.92,445.92,437.44,415.62,415.62,409.56,407.14,407.14,403.51,401.08,401.08,401.08,401.08,401.08,398.66,395.02,395.02,395.02,392.60,392.60,392.60,390.18,390.18,386.54,384.12,384.12,384.12,380.48,380.48,380.48,380.48,380.48,380.48,380.48,380.48,380.48,375.64,375.64,375.64,372.00,372.00,369.58,369.58,369.58,369.58,361.09,361.09,361.09,352.61,352.61,352.61,350.19,350.19,346.55,346.55,346.55,346.55,344.13,344.13,341.71,341.71,341.71,341.71,338.07,338.07,338.07,335.65,335.65,335.65,333.22,333.22,333.22,329.59,329.59,329.59,327.16,327.16,327.16,327.16,327.16,327.16,321.11,321.11,321.11,318.68,318.68,318.68,318.68,318.68,318.68,312.62,312.62,310.20,310.20,310.20,306.56,306.56,306.56,306.56,304.14,304.14,304.14,302.93,302.93,302.93,302.93,302.93,302.93,302.93,302.93,301.72,301.72,301.72,301.72,300.51,300.51,300.51,300.51,300.51,300.51,299.29,299.29,299.29,299.29,299.29,299.29,299.29,299.29,298.08,298.08,298.08,298.08,298.08,298.08,296.87,296.87,296.87,296.87,295.66,295.66,295.66,295.66,295.66,295.66,295.66,295.66,295.66,295.66,295.66,295.66,295.66,295.66,294.45,294.45,294.45,294.45,293.24,293.24,293.24,293.24,293.24,292.02,290.81,290.81,290.81,290.81,290.81,290.81,289.60,289.60,289.60,289.60,289.60,289.60,289.60,289.60,289.60,289.60,289.60,288.39,288.39,288.39,288.39,288.39,288.39,288.39,288.39,288.39,288.39,288.39,288.39,288.39,288.39,288.39,288.39,287.18,287.18,287.18,287.18,287.18,287.18,287.18,287.18,287.18,287.18,287.18,287.18,287.18,287.18,287.18,287.18,287.18,287.18,287.18,287.18,287.18,287.18,287.18,287.18,287.18,287.18,287.18,287.18,287.18,287.18,287.18,287.18,287.18,287.18,287.18,287.18,287.18,287.18,287.18,287.18,287.18,287.18,287.18
491.96,481.06,481.06,481.06,481.06,481.06,481.06,481.06,481.06,481.06,481.06,481.06,481.06,481.06,481.06,481.06,491.96,491.96,491.96,491.96,491.96,491.96,491.96,491.96,491.96,491.96,491.96,491.96,491.96,491.96,491.96,491.96,481.06,481.06,481.06,481.06,481.06,466.52,466.52,466.52,466.52,466.52,466.52,466.52,466.52,466.52,466.52,466.52,481.06,491.96,491.96,491.96,498.02,500.45,500.45,505.29,505.29,506.51,506.51,506.51,506.51,505.29,500.45,500.45,494.39,491.96,491.96,481.06,466.52,466.52,458.04,437.44,437.44,437.44,437.44,437.44,437.44,437.44,445.92,458.04,458.04,458.04,466.52,481.06,481.06,491.96,491.96,491.96,494.39,498.02,500.45,500.45,505.29,505.29,505.29,505.29,506.51,506.51,506.51,505.29,505.29,505.29,505.29,505.29,505.29,500.45,498.02,498.02,498.02,494.39,494.39,494.39,494.39,494.39,494.39,494.39,494.39,494.39,494.39,494.39,494.39,494.39,494.39,498.02,498.02,498.02,498.02,500.45,500.45,500.45,505.29,505.29,505.29,505.29,505.29,505.29,505.29,505.29,505.29,505.29,505.29,505.29,505.29,505.29,505.29,505.29,505.29,505.29,505.29,506.51,506.51,506.51,505.29,505.29,505.29,505.29,505.29,505.29,505.29,500.45,500.45,500.45,498.02,498.02,498.02,498.02,498.02,498.02,498.02,500.45,500.45,500.45,505.29,505.29,505.29,505.29,505.29,505.29,505.29,506.51,506.51,506.51,505.29,500.45,500.45,498.02,498.02,481.06,458.04,458.04,437.44,415.62,415.62,411.99,407.14,407.14,403.51,401.08,401.08,401.08,401.08,401.08,398.66,398.66,395.02,395.02,392.60,392.60,392.60,390.18,390.18,386.54,384.12,384.12,384.12,380.48,380.48,380.48,380.48,380.48,380.48,380.48,380.48,375.64,375.64,375.64,375.64,372.00,372.00,369.58,369.58,369.58,363.52,361.09,361.09,361.09,352.61,352.61,352.61,350.19,350.19,346.55,346.55,346.55,346.55,344.13,344.13,341.71,341.71,341.71,341.71,338.07,338.07,338.07,335.65,335.65,335.65,333.22,333.22,333.22,329.59,329.59,329.59,327.16,327.16,327.16,327.16,327.16,327.16,321.11,321.11,321.11,321.11,321.11,318.68,318.68,318.68,318.68,312.62,312.62,312.62,310.20,310.20,306.56,306.56,306.56,306.56,304.14,304.14,302.93,302.93,302.93,302.93,302.93,302.93,302.93,302.93,302.93,301.72,301.72,301.72,301.72,300.51,300.51,300.51,300.51,300.51,300.51,299.29,299.29,299.29,299.29,299.29,299.29,299.29,299.29,298.08,298.08,298.08,298.08,298.08,298.08,296.87,296.87,296.87,296.87,296.87,296.87,295.66,295.66,295.66,295.66,295.66,295.66,295.66,295.66,295.66,295.66,295.66,295.66,294.45,294.45,294.45,293.24,293.24,293.24,293.24,293.24,293.24,292.02,290.81,290.81,290.81,290.81,290.81,290.81,289.60,289.60,289.60,289.60,289.60,289.60,289.60,289.60,289.60,289.60,289.60,288.39,288.39,288.39,288.39,288.39,288.39,288.39,288.39,288.39,288.39,288.39,288.39,288.39,288.39,288.39,288.39,287.18,287.18,287.18,287.18,287.18,287.18,287.18,287.18,287.18,287.18,287.18,287.18,287.18,287.18,287.18,287.18,287.18,287.18,287.18,287.18,287.18,287.18,287.18,287.18,287.18,287.18,287.18,287.18,287.18,287.18,287.18,287.18,287.18,287.18,287.18,287.18,287.18,287.18,287.18,287.18,287.18,287.18,287.18
491.96,481.06,481.06,481.06,481.06,481.06,481.06,481.06,481.06,481.06,481.06,481.06,481.06,481.06,481.06,481.06,481.06,481.06,481.06,481.06,481.06,481.06,481.06,481.06,481.06,481.06,481.06,481.06,481.06,481.06,481.06,481.06,481.06,481.06,466.52,466.52,466.52,466.52,466.52,466.52,466.52,466.52,466.52,466.52,466.52,466.52,466.52,466.52,481.06,491.96,491.96,491.96,498.02,500.45,500.45,505.29,505.29,506.51,506.51,506.51,506.51,505.29,500.45,500.45,500.45,491.96,491.96,481.06,466.52,466.52,458.04,437.44,437.44,437.44,437.44,437.44,437.44,437.44,445.92,458.04,458.04,466.52,481.06,481.06,481.06,491.96,494.39,494.39,498.02,498.02,500.45,500.45,505.29,505.29,505.29,505.29,505.29,505.29,505.29,505.29,505.29,505.29,505.29,505.29,500.45,498.02,498.02,498.02,498.02,494.39,494.39,494.39,494.39,494.39,494.39,494.39,494.39,494.39,494.39,494.39,494.39,494.39,494.39,498.02,498.02,498.02,498.02,500.45,500.45,500.45,505.29,505.29,505.29,505.29,505.29,505.29,505.29,505.29,505.29,505.29,505.29,505.29,505.29,505.29,505.29,505.29,505.29,505.29,505.29,506.51,506.51,506.51,505.29,505.29,505.29,505.29,505.29,505.29,505.29,500.45,500.45,500.45,500.45,500.45,500.45,500.45,500.45,500.45,500.45,500.45,500.45,500.45,505.29,505.29,505.29,505.29,505.29,506.51,506.51,506.51,506.51,506.51,505.29,505.29,505.29,498.02,498.02,491.96,466.52,466.52,437.44,424.11,424.11,411.99,407.14,407.14,407.14,403.51,403.51,401.08,401.08,401.08,398.66,398.66,398.66,395.02,395.02,392.60,392.60,392.60,390.18,386.54,384.12,384.12,384.12,380.48,380.48,380.48,380.48,380.48,380.48,380.48,380.48,375.64,375.64,375.64,375.64,372.00,372.00,369.58,369.58,369.58,363.52,361.09,361.09,361.09,352.61,352.61,352.61,350.19,350.19,346.55,346.55,346.55,346.55,344.13,344.13,341.71,341.71,341.71,341.71,338.07,338.07,338.07,335.65,335.65,335.65,333.22,333.22,333.22,329.59,329.59,329.59,327.16,327.16,327.16,327.16,327.16,327.16,321.11,321.11,321.11,321.11,321.11,318.68,318.68,318.68,318.68,312.62,312.62,312.62,310.20,310.20,306.56,306.56,306.56,306.56,304.14,304.14,302.93,302.93,302.93,302.93,302.93,302.93,302.93,302.93,302.93,301.72,301.72,301.72,301.72,300.51,300.51,300.51,300.51,300.51,300.51,299.29,299.29,299.29,299.29,299.29,299.29,299.29,299.29,298.08,298.08,298.08,298.08,298.08,298.08,296.87,296.87,296.87,296.87,296.87,296.87,295.66,295.66,295.66,295.66,295.66,295.66,295.66,295.66,295.66,295.66,295.66,295.66,294.45,294.45,294.45,293.24,293.24,293.24,293.24,293.24,293.24,292.02,290.81,290.81,290.81,290.81,290.81,290.81,289.60,289.60,289.60,289.60,289.60,289.60,289.60,289.60,289.60,289.60,289.60,288.39,288.39,288.39,288.39,288.39,288.39,288.39,288.39,288.39,288.39,288.39,288.39,288.39,288.39,288.39,287.18,287.18,287.18,287.18,287.18,287.18,287.18,287.18,287.18,287.18,287.18,287.18,287.18,287.18,287.18,287.18,287.18,287.18,287.18,287.18,287.18,287.18,287.18,287.18,287.18,287.18,287.18,287.18,287.18,287.18,287.18,287.18,287.18,287.18,287.18,287.18,287.18,287.18,287.18,287.18,287.18,287.18,287.18,287.18
491.96,481.06,481.06,481.06,481.06,481.06,481.06,481.06,481.06,481.06,481.06,481.06,481.06,481.06,481.06,481.06,481.06,481.06,481.06,481.06,481.06,481.06,481.06,481.06,481.06,481.06,481.06,481.06,466.52,466.52,466.52,466.52,466.52,466.52,458.04,458.04,458.04,458.04,458.04,458.04,458.04,458.04,458.04,458.04,458.04,458.04,458.04,458.04,466.52,481.06,481.06,491.96,491.96,498.02,498.02,500.45,505.29,505.29,505.29,505.29,505.29,505.29,500.45,500.45,498.02,491.96,491.96,481.06,466.52,466.52,458.04,445.92,445.92,437.44,437.44,437.44,437.44,437.44,445.92,458.04,458.04,466.52,481.06,491.96,491.96,491.96,494.39,494.39,498.02,500.45,500.45,500.45,505.29,505.29,505.29,505.29,505.29,505.29,505.29,505.29,505.29,505.29,505.29,505.29,500.45,498.02,498.02,498.02,498.02,494.39,494.39,494.39,491.96,491.96,491.96,494.39,494.39,494.39,494.39,494.39,494.39,494.39,494.39,498.02,498.02,498.02,500.45,500.45,500.45,505.29,505.29,505.29,505.29,505.29,505.29,505.29,505.29,505.29,505.29,505.29,505.29,505.29,505.29,505.29,505.29,505.29,505.29,505.29,505.29,506.51,506.51,506.51,505.29,505.29,505.29,505.29,505.29,505.29,505.29,500.45,500.45,500.45,500.45,500.45,500.45,500.45,500.45,500.45,500.45,500.45,500.45,500.45,505.29,505.29,505.29,505.29,505.29,505.29,505.29,505.29,506.51,506.51,505.29,505.29,505.29,498.02,498.02,491.96,466.52,466.52,437.44,424.11,424.11,415.62,409.56,409.56,407.14,403.51,403.51,401.08,401.08,401.08,398.66,398.66,398.66,395.02,395.02,392.60,392.60,392.60,390.18,390.18,386.54,386.54,384.12,380.48,380.48,380.48,380.48,380.48,380.48,380.48,380.48,375.64,375.64,375.64,375.64,372.00,372.00,369.58,369.58,369.58,363.52,361.09,361.09,361.09,352.61,352.61,352.61,352.61,350.19,350.19,346.55,346.55,346.55,344.13,344.13,341.71,341.71,341.71,341.71,338.07,338.07,338.07,335.65,335.65,335.65,333.22,333.22,333.22,333.22,333.22,329.59,327.16,327.16,327.16,327.16,327.16,327.16,327.16,327.16,321.11,321.11,321.11,318.68,318.68,318.68,318.68,312.62,312.62,312.62,310.20,310.20,306.56,306.56,306.56,306.56,304.14,304.14,302.93,302.93,302.93,302.93,302.93,302.93,302.93,301.72,301.72,301.72,301.72,301.72,301.72,300.51,300.51,300.51,300.51,300.51,300.51,299.29,299.29,299.29,299.29,299.29,299.29,298.08,298.08,298.08,298.08,298.08,298.08,298.08,298.08,296.87,296.87,296.87,296.87,296.87,296.87,295.66,295.66,295.66,295.66,295.66,295.66,295.66,295.66,295.66,295.66,295.66,295.66,294.45,294.45,294.45,293.24,293.24,293.24,293.24,293.24,293.24,292.02,290.81,290.81,290.81,290.81,290.81,290.81,289.60,289.60,289.60,289.60,289.60,289.60,289.60,289.60,289.60,289.60,289.60,288.39,288.39,288.39,288.39,288.39,288.39,288.39,288.39,288.39,288.39,288.39,288.39,288.39,288.39,288.39,288.39,287.18,287.18,287.18,287.18,287.18,287.18,287.18,287.18,287.18,287.18,287.18,287.18,287.18,287.18,287.18,287.18,287.18,287.18,287.18,287.18,287.18,287.18,287.18,287.18,287.18,287.18,287.18,287.18,287.18,287.18,287.18,287.18,287.18,287.18,287.18,287.18,287.18,287.18,287.18,287.18,287.18,287.18,287.18
