299.16,299.16,299.16,299.16,299.16,299.16,299.16,299.16,299.16,299.16,299.16,300.51,300.51,300.51,300.51,301.85,301.85,301.85,301.85,303.19,303.19,303.19,303.19,304.53,304.53,304.53,305.87,305.87,305.87,305.87,305.87,305.87,307.21,307.21,307.21,307.21,307.21,307.21,308.55,308.55,308.55,308.55,309.89,309.89,309.89,309.89,316.60,316.60,316.60,316.60,319.28,319.28,319.28,319.28,321.96,321.96,321.96,328.67,328.67,328.67,328.67,328.67,328.67,332.69,335.38,335.38,335.38,338.06,338.06,342.08,342.08,344.76,351.47,351.47,351.47,351.47,354.15,354.15,356.84,356.84,360.86,360.86,360.86,363.54,370.25,370.25,370.25,370.25,372.93,372.93,372.93,372.93,372.93,379.64,379.64,379.64,379.64,379.64,382.32,382.32,382.32,385.00,385.00,385.00,391.71,391.71,391.71,391.71,394.39,394.39,401.09,401.09,401.09,405.12,405.12,405.12,410.48,410.48,410.48,410.48,414.51,414.51,414.51,414.51,419.87,419.87,419.87,419.87,423.89,423.89,423.89,423.89,429.26,429.26,429.26,429.26,433.28,433.28,433.28,438.65,438.65,438.65,442.67,442.67,442.67,448.04,448.04,452.06,452.06,454.74,454.74,457.42,457.42,457.42,457.42,457.42,461.45,461.45,461.45,461.45,464.13,464.13,464.13,464.13,466.81,466.81,466.81,477.54,482.91,505.71,505.71,505.71,517.78,524.48,524.48,524.48,527.16,527.16,527.16,527.16,527.16,527.16,527.16,527.16,527.16,524.48,524.48,524.48,524.48,524.48,524.48,524.48,524.48,524.48,517.78,513.75,513.75,513.75,505.71,505.71,505.71,505.71,505.71,505.71,486.93,486.93,486.93,482.91,482.91,482.91,482.91,477.54,477.54,477.54,477.54,477.54,477.54,477.54,477.54,477.54,477.54,477.54,477.54,477.54,477.54,477.54,477.54,477.54,477.54,477.54,477.54,477.54,482.91,482.91,482.91,505.71,505.71,505.71,513.75,517.78,524.48,524.48,524.48,527.16,532.53,532.53,532.53,532.53,527.16,527.16,527.16,524.48,524.48,524.48,524.48,517.78,513.75,513.75,513.75,513.75,513.75,513.75,513.75,513.75,513.75,513.75,513.75,513.75,513.75,513.75,513.75,513.75,513.75,517.78,517.78,517.78,517.78,517.78,517.78,517.78,517.78,517.78,524.48,524.48,524.48,524.48,524.48,524.48,524.48,524.48,524.48,524.48,524.48,524.48,524.48,524.48,524.48,524.48,524.48,524.48,524.48,524.48,524.48,524.48,524.48,524.48,524.48,524.48,524.48,524.48,524.48,524.48,524.48,517.78,517.78,517.78,517.78,517.78,517.78,513.75,513.75,513.75,513.75,513.75,513.75,513.75,505.71,505.71,505.71,505.71,505.71,505.71,505.71,505.71,505.71,505.71,505.71,505.71,505.71,505.71,505.71,505.71,505.71,505.71,505.71,505.71,505.71,513.75,513.75,513.75,513.75,513.75,517.78,517.78,517.78,517.78,517.78,517.78,517.78,517.78,517.78,517.78,517.78,517.78,517.78,513.75,513.75,513.75,513.75,513.75,513.75,513.75,513.75,513.75,513.75,513.75,513.75,513.75,513.75,513.75,513.75,513.75,513.75,513.75,513.75,505.71,505.71,505.71,505.71,505.71,505.71,505.71,505.71,524.48,551.31,562.04,570.08,555.33,555.33,524.48,524.48,524.48,524.48,524.48,524.48,524.48,524.48,524.48,524.48,524.48,524.48,524.48,524.48,524.48,524.48,524.48,524.48,524.48,524.48,536.55,536.55,536.55,536.55,536.55,536.55,536.55
299.16,299.16,299.16,299.16,299.16,299.16,299.16,299.16,299.16,299.16,299.16,300.51,300.51,300.51,300.51,301.85,301.85,301.85,301.85,303.19,303.19,303.19,303.19,304.53,304.53,304.53,305.87,305.87,305.87,305.87,305.87,305.87,307.21,307.21,307.21,307.21,307.21,307.21,308.55,308.55,308.55,308.55,309.89,309.89,309.89,309.89,316.60,316.60,316.60,316.60,319.28,319.28,319.28,319.28,321.96,321.96,321.96,328.67,328.67,328.67,328.67,328.67,328.67,332.69,335.38,335.38,335.38,338.06,338.06,342.08,342.08,344.76,351.47,351.47,351.47,351.47,354.15,354.15,356.84,356.84,360.86,360.86,360.86,363.54,370.25,370.25,370.25,370.25,372.93,372.93,372.93,372.93,372.93,379.64,379.64,379.64,379.64,379.64,382.32,382.32,382.32,385.00,385.00,385.00,391.71,391.71,391.71,391.71,394.39,394.39,401.09,401.09,401.09,405.12,405.12,405.12,410.48,410.48,410.48,410.48,414.51,414.51,414.51,414.51,419.87,419.87,419.87,419.87,423.89,423.89,423.89,423.89,429.26,429.26,429.26,429.26,429.26,433.28,433.28,438.65,438.65,438.65,442.67,442.67,442.67,448.04,448.04,452.06,452.06,454.74,454.74,454.74,457.42,457.42,457.42,457.42,461.45,461.45,461.45,461.45,464.13,464.13,464.13,464.13,466.81,466.81,466.81,477.54,482.91,505.71,505.71,513.75,517.78,524.48,524.48,524.48,527.16,527.16,527.16,527.16,527.16,527.16,527.16,527.16,527.16,524.48,524.48,524.48,524.48,524.48,524.48,524.48,517.78,517.78,517.78,513.75,513.75,505.71,505.71,505.71,505.71,505.71,486.93,486.93,486.93,482.91,482.91,482.91,482.91,482.91,477.54,477.54,477.54,477.54,477.54,477.54,477.54,477.54,477.54,477.54,477.54,477.54,477.54,477.54,477.54,477.54,477.54,477.54,477.54,477.54,477.54,477.54,482.91,482.91,482.91,505.71,505.71,505.71,513.75,517.78,524.48,524.48,524.48,527.16,532.53,532.53,532.53,532.53,527.16,527.16,527.16,524.48,524.48,524.48,524.48,517.78,513.75,513.75,513.75,513.75,513.75,513.75,513.75,513.75,513.75,513.75,513.75,513.75,513.75,513.75,513.75,513.75,513.75,513.75,513.75,513.75,513.75,513.75,513.75,513.75,517.78,517.78,517.78,517.78,517.78,517.78,517.78,517.78,517.78,524.48,524.48,524.48,524.48,524.48,524.48,524.48,524.48,524.48,524.48,524.48,524.48,524.48,524.48,524.48,524.48,524.48,524.48,524.48,524.48,524.48,524.48,517.78,517.78,517.78,517.78,517.78,517.78,517.78,517.78,513.75,513.75,513.75,513.75,513.75,513.75,513.75,505.71,505.71,505.71,505.71,505.71,505.71,505.71,505.71,505.71,505.71,505.71,505.71,505.71,505.71,505.71,505.71,505.71,505.71,505.71,513.75,513.75,513.75,513.75,513.75,517.78,517.78,517.78,517.78,524.48,524.48,524.48,524.48,524.48,517.78,517.78,517.78,517.78,517.78,517.78,517.78,513.75,513.75,513.75,513.75,513.75,513.75,513.75,513.75,513.75,513.75,513.75,513.75,513.75,513.75,513.75,513.75,513.75,513.75,513.75,505.71,505.71,505.71,505.71,505.71,505.71,505.71,505.71,524.48,549.96,552.65,570.08,555.33,555.33,524.48,524.48,524.48,524.48,524.48,524.48,524.48,524.48,524.48,524.48,524.48,524.48,524.48,524.48,524.48,524.48,524.48,524.48,524.48,524.48,524.48,524.48,536.55,536.55,536.55,524.48,524.48
299.16,299.16,299.16,299.16,299.16,299.16,299.16,299.16,299.16,299.16,299.16,300.51,300.51,300.51,300.51,301.85,301.85,301.85,301.85,303.19,303.19,303.19,303.19,304.53,305.87,305.87,305.87,305.87,305.87,305.87,305.87,307.21,307.21,307.21,307.21,307.21,307.21,308.55,308.55,308.55,308.55,308.55,309.89,309.89,309.89,309.89,316.60,316.60,316.60,316.60,319.28,319.28,319.28,319.28,321.96,321.96,321.96,328.67,328.67,328.67,328.67,328.67,328.67,332.69,335.38,338.06,338.06,338.06,342.08,342.08,342.08,344.76,351.47,351.47,351.47,354.15,354.15,354.15,356.84,360.86,360.86,360.86,360.86,363.54,370.25,370.25,370.25,370.25,372.93,372.93,372.93,372.93,372.93,379.64,379.64,379.64,379.64,379.64,382.32,382.32,382.32,385.00,385.00,385.00,391.71,391.71,391.71,391.71,391.71,394.39,401.09,401.09,401.09,405.12,405.12,405.12,410.48,410.48,410.48,410.48,414.51,414.51,414.51,414.51,419.87,419.87,419.87,419.87,423.89,423.89,423.89,423.89,429.26,429.26,429.26,429.26,429.26,433.28,433.28,438.65,438.65,438.65,442.67,442.67,442.67,448.04,448.04,452.06,452.06,454.74,454.74,454.74,457.42,457.42,457.42,457.42,461.45,461.45,461.45,461.45,464.13,464.13,464.13,464.13,466.81,477.54,477.54,477.54,486.93,505.71,505.71,513.75,517.78,524.48,524.48,524.48,527.16,527.16,527.16,527.16,527.16,527.16,527.16,527.16,527.16,524.48,524.48,524.48,524.48,524.48,524.48,524.48,517.78,517.78,513.75,513.75,513.75,505.71,505.71,505.71,505.71,486.93,486.93,486.93,482.91,482.91,482.91,477.54,477.54,477.54,477.54,477.54,477.54,477.54,477.54,477.54,477.54,477.54,477.54,477.54,477.54,477.54,477.54,477.54,477.54,477.54,477.54,477.54,477.54,477.54,477.54,477.54,482.91,482.91,482.91,486.93,505.71,505.71,513.75,517.78,524.48,524.48,524.48,524.48,527.16,527.16,532.53,532.53,527.16,524.48,524.48,524.48,524.48,524.48,524.48,517.78,513.75,513.75,513.75,513.75,513.75,513.75,513.75,513.75,513.75,513.75,513.75,513.75,513.75,513.75,513.75,513.75,513.75,513.75,513.75,513.75,513.75,513.75,513.75,513.75,517.78,517.78,517.78,517.78,517.78,517.78,517.78,517.78,517.78,524.48,524.48,524.48,517.78,517.78,517.78,517.78,517.78,517.78,517.78,524.48,524.48,524.48,524.48,524.48,524.48,524.48,524.48,524.48,517.78,517.78,517.78,517.78,517.78,517.78,517.78,517.78,517.78,517.78,513.75,513.75,513.75,513.75,513.75,513.75,513.75,513.75,513.75,513.75,505.71,505.71,505.71,505.71,505.71,505.71,505.71,505.71,505.71,505.71,505.71,505.71,505.71,505.71,505.71,505.71,505.71,513.75,513.75,513.75,513.75,513.75,517.78,517.78,517.78,517.78,524.48,524.48,524.48,524.48,524.48,517.78,517.78,517.78,517.78,517.78,517.78,517.78,513.75,513.75,513.75,513.75,513.75,513.75,513.75,513.75,513.75,513.75,513.75,513.75,513.75,513.75,513.75,513.75,513.75,513.75,513.75,505.71,505.71,505.71,505.71,505.71,505.71,505.71,505.71,524.48,549.96,552.65,570.08,555.33,555.33,524.48,524.48,524.48,524.48,524.48,524.48,524.48,524.48,524.48,524.48,524.48,524.48,524.48,524.48,524.48,524.48,524.48,524.48,524.48,524.48,524.48,524.48,524.48,524.48,524.48,524.48,524.48
299.16,299.16,299.16,299.16,299.16,299.16,299.16,299.16,299.16,300.51,300.51,300.51,300.51,300.51,300.51,301.85,301.85,301.85,301.85,301.85,303.19,303.19,303.19,304.53,304.53,304.53,305.87,305.87,305.87,305.87,305.87,307.21,307.21,307.21,307.21,307.21,307.21,308.55,308.55,308.55,308.55,308.55,309.89,309.89,309.89,309.89,316.60,316.60,316.60,316.60,319.28,319.28,319.28,319.28,321.96,321.96,321.96,328.67,328.67,328.67,328.67,328.67,328.67,332.69,335.38,338.06,338.06,338.06,342.08,344.76,344.76,351.47,351.47,351.47,351.47,354.15,356.84,356.84,356.84,360.86,360.86,360.86,360.86,363.54,370.25,370.25,370.25,370.25,370.25,370.25,372.93,372.93,372.93,372.93,379.64,379.64,379.64,379.64,382.32,382.32,382.32,385.00,385.00,385.00,391.71,391.71,391.71,391.71,391.71,394.39,401.09,401.09,401.09,401.09,401.09,405.12,410.48,410.48,410.48,410.48,414.51,414.51,414.51,414.51,419.87,419.87,419.87,419.87,423.89,423.89,423.89,423.89,429.26,429.26,429.26,429.26,429.26,433.28,433.28,438.65,438.65,438.65,442.67,442.67,442.67,448.04,448.04,448.04,448.04,452.06,454.74,454.74,457.42,457.42,457.42,457.42,457.42,461.45,461.45,461.45,464.13,464.13,464.13,464.13,466.81,477.54,477.54,477.54,486.93,505.71,505.71,513.75,517.78,524.48,524.48,527.16,527.16,527.16,527.16,527.16,527.16,527.16,527.16,527.16,527.16,524.48,524.48,524.48,524.48,524.48,524.48,524.48,517.78,517.78,513.75,513.75,513.75,505.71,505.71,505.71,505.71,486.93,486.93,486.93,482.91,477.54,477.54,477.54,477.54,477.54,477.54,477.54,477.54,477.54,477.54,477.54,477.54,477.54,477.54,477.54,477.54,477.54,477.54,477.54,477.54,477.54,477.54,477.54,477.54,477.54,477.54,477.54,482.91,482.91,482.91,486.93,505.71,505.71,505.71,513.75,517.78,517.78,524.48,524.48,524.48,524.48,527.16,527.16,524.48,524.48,524.48,524.48,524.48,524.48,517.78,513.75,513.75,513.75,513.75,505.71,505.71,505.71,505.71,505.71,505.71,505.71,513.75,513.75,513.75,513.75,513.75,513.75,513.75,513.75,513.75,513.75,513.75,513.75,513.75,513.75,513.75,513.75,513.75,513.75,513.75,513.75,517.78,517.78,517.78,517.78,517.78,517.78,517.78,517.78,517.78,517.78,517.78,517.78,517.78,524.48,524.48,524.48,524.48,524.48,524.48,524.48,524.48,524.48,517.78,517.78,517.78,517.78,517.78,517.78,517.78,517.78,517.78,517.78,513.75,513.75,513.75,513.75,513.75,513.75,513.75,513.75,513.75,513.75,513.75,505.71,505.71,505.71,505.71,505.71,505.71,505.71,505.71,505.71,505.71,505.71,513.75,513.75,513.75,513.75,513.75,513.75,513.75,517.78,517.78,517.78,517.78,517.78,524.48,524.48,524.48,524.48,524.48,524.48,524.48,524.48,524.48,517.78,517.78,517.78,517.78,517.78,513.75,513.75,513.75,513.75,513.75,513.75,513.75,513.75,513.75,513.75,513.75,513.75,513.75,513.75,513.75,513.75,513.75,513.75,513.75,505.71,505.71,505.71,505.71,505.71,505.71,505.71,505.71,524.48,549.96,552.65,570.08,555.33,555.33,524.48,524.48,524.48,524.48,524.48,524.48,524.48,524.48,524.48,524.48,524.48,524.48,524.48,524.48,524.48,524.48,524.48,524.48,524.48,524.48,524.48,524.48,524.48,524.48,524.48,524.48,524.48
299.16,299.16,299.16,299.16,299.16,299.16,299.16,299.16,299.16,300.51,300.51,300.51,300.51,300.51,300.51,301.85,301.85,301.85,301.85,301.85,303.19,303.19,303.19,304.53,304.53,304.53,305.87,305.87,305.87,305.87,305.87,307.21,307.21,307.21,307.21,307.21,307.21,308.55,308.55,308.55,308.55,308.55,309.89,309.89,309.89,309.89,316.60,316.60,316.60,316.60,319.28,319.28,319.28,319.28,321.96,321.96,321.96,328.67,328.67,328.67,328.67,328.67,328.67,332.69,335.38,338.06,338.06,338.06,342.08,344.76,344.76,351.47,351.47,351.47,351.47,354.15,356.84,356.84,356.84,360.86,360.86,360.86,360.86,363.54,370.25,370.25,370.25,370.25,370.25,370.25,372.93,372.93,372.93,372.93,379.64,379.64,379.64,379.64,382.32,382.32,382.32,385.00,385.00,385.00,391.71,391.71,391.71,391.71,391.71,394.39,401.09,401.09,401.09,401.09,401.09,405.12,410.48,410.48,410.48,410.48,414.51,414.51,414.51,414.51,419.87,419.87,419.87,419.87,423.89,423.89,423.89,423.89,429.26,429.26,429.26,429.26,429.26,433.28,433.28,438.65,438.65,438.65,442.67,442.67,442.67,448.04,448.04,448.04,448.04,452.06,454.74,454.74,454.74,457.42,457.42,457.42,457.42,461.45,461.45,461.45,461.45,464.13,464.13,464.13,466.81,477.54,477.54,482.91,486.93,505.71,505.71,513.75,517.78,524.48,524.48,527.16,527.16,527.16,527.16,527.16,527.16,527.16,527.16,527.16,527.16,524.48,524.48,524.48,524.48,524.48,524.48,524.48,517.78,517.78,513.75,505.71,505.71,505.71,505.71,505.71,505.71,486.93,486.93,482.91,482.91,477.54,477.54,477.54,477.54,477.54,477.54,477.54,477.54,477.54,477.54,477.54,477.54,477.54,477.54,477.54,477.54,477.54,477.54,477.54,477.54,477.54,477.54,477.54,477.54,477.54,477.54,477.54,482.91,482.91,482.91,486.93,505.71,505.71,505.71,513.75,517.78,517.78,524.48,524.48,524.48,524.48,524.48,524.48,524.48,524.48,524.48,524.48,517.78,517.78,517.78,513.75,513.75,513.75,505.71,505.71,505.71,505.71,505.71,505.71,505.71,505.71,505.71,505.71,505.71,505.71,505.71,505.71,505.71,505.71,505.71,505.71,505.71,505.71,505.71,505.71,513.75,513.75,513.75,513.75,513.75,513.75,513.75,513.75,513.75,517.78,517.78,517.78,517.78,517.78,517.78,517.78,517.78,517.78,517.78,517.78,517.78,517.78,517.78,517.78,517.78,517.78,517.78,517.78,517.78,517.78,517.78,517.78,517.78,517.78,513.75,513.75,513.75,513.75,513.75,513.75,513.75,513.75,513.75,513.75,513.75,513.75,513.75,513.75,513.75,513.75,513.75,513.75,513.75,513.75,513.75,513.75,513.75,513.75,513.75,513.75,513.75,513.75,517.78,517.78,517.78,517.78,517.78,524.48,524.48,524.48,524.48,524.48,524.48,524.48,524.48,524.48,524.48,524.48,524.48,524.48,524.48,524.48,517.78,517.78,517.78,517.78,513.75,513.75,513.75,513.75,513.75,513.75,513.75,513.75,513.75,513.75,513.75,513.75,513.75,513.75,513.75,513.75,513.75,513.75,513.75,505.71,505.71,505.71,505.71,513.75,513.75,513.75,513.75,543.26,556.67,552.65,552.65,552.65,570.08,524.48,524.48,524.48,524.48,524.48,524.48,524.48,524.48,524.48,524.48,524.48,524.48,524.48,524.48,524.48,524.48,524.48,524.48,524.48,524.48,524.48,524.48,524.48,524.48,524.48,524.48,524.48
299.16,299.16,299.16,299.16,299.16,299.16,299.16,299.16,299.16,300.51,300.51,300.51,300.51,300.51,300.51,301.85,301.85,301.85,301.85,301.85,303.19,303.19,303.19,304.53,304.53,304.53,305.87,305.87,305.87,305.87,305.87,307.21,307.21,307.21,307.21,307.21,307.21,308.55,308.55,308.55,308.55,309.89,309.89,309.89,309.89,316.60,316.60,316.60,316.60,316.60,319.28,319.28,319.28,319.28,321.96,321.96,321.96,328.67,328.67,328.67,328.67,332.69,332.69,335.38,335.38,338.06,338.06,338.06,342.08,344.76,344.76,351.47,351.47,354.15,354.15,354.15,356.84,356.84,356.84,360.86,360.86,360.86,360.86,363.54,370.25,370.25,370.25,370.25,370.25,370.25,372.93,372.93,372.93,372.93,379.64,379.64,379.64,379.64,382.32,382.32,382.32,385.00,385.00,385.00,385.00,391.71,391.71,391.71,391.71,391.71,391.71,394.39,401.09,401.09,401.09,405.12,405.12,410.48,410.48,410.48,414.51,414.51,414.51,414.51,419.87,419.87,419.87,419.87,423.89,423.89,423.89,423.89,429.26,429.26,429.26,429.26,429.26,433.28,433.28,438.65,438.65,438.65,442.67,442.67,442.67,448.04,448.04,448.04,448.04,452.06,454.74,454.74,454.74,457.42,457.42,457.42,457.42,457.42,457.42,461.45,461.45,464.13,464.13,464.13,466.81,477.54,477.54,482.91,505.71,505.71,505.71,513.75,517.78,524.48,524.48,524.48,527.16,527.16,527.16,527.16,527.16,527.16,527.16,527.16,527.16,524.48,524.48,524.48,524.48,524.48,524.48,524.48,517.78,517.78,513.75,505.71,505.71,505.71,505.71,505.71,486.93,482.91,482.91,482.91,477.54,477.54,477.54,477.54,477.54,477.54,477.54,477.54,477.54,477.54,477.54,477.54,477.54,477.54,477.54,477.54,477.54,477.54,477.54,477.54,477.54,477.54,477.54,477.54,477.54,477.54,477.54,477.54,482.91,482.91,482.91,486.93,505.71,505.71,505.71,513.75,513.75,513.75,517.78,524.48,524.48,524.48,524.48,524.48,524.48,524.48,524.48,524.48,517.78,517.78,517.78,513.75,513.75,513.75,505.71,505.71,505.71,505.71,505.71,505.71,505.71,505.71,505.71,505.71,505.71,505.71,505.71,505.71,505.71,505.71,505.71,505.71,505.71,505.71,505.71,505.71,505.71,505.71,513.75,513.75,513.75,513.75,513.75,513.75,513.75,517.78,517.78,517.78,517.78,517.78,513.75,513.75,513.75,513.75,513.75,513.75,513.75,513.75,513.75,517.78,517.78,517.78,517.78,517.78,513.75,513.75,513.75,513.75,513.75,513.75,513.75,513.75,513.75,513.75,513.75,513.75,513.75,513.75,513.75,513.75,513.75,513.75,513.75,513.75,513.75,513.75,513.75,513.75,513.75,513.75,513.75,513.75,513.75,513.75,513.75,513.75,513.75,513.75,517.78,517.78,517.78,517.78,517.78,524.48,524.48,524.48,524.48,524.48,524.48,524.48,524.48,524.48,524.48,524.48,524.48,524.48,524.48,524.48,517.78,517.78,517.78,517.78,517.78,517.78,513.75,513.75,513.75,513.75,513.75,513.75,513.75,513.75,513.75,513.75,513.75,513.75,513.75,513.75,513.75,513.75,513.75,505.71,505.71,505.71,505.71,513.75,513.75,513.75,513.75,543.26,556.67,552.65,552.65,552.65,570.08,524.48,524.48,524.48,524.48,524.48,524.48,524.48,524.48,524.48,524.48,524.48,524.48,524.48,524.48,524.48,524.48,524.48,524.48,524.48,524.48,524.48,524.48,524.48,524.48,524.48,524.48,524.48
299.16,299.16,299.16,299.16,299.16,299.16,299.16,299.16,299.16,300.51,300.51,300.51,300.51,300.51,300.51,301.85,301.85,301.85,301.85,301.85,303.19,303.19,303.19,304.53,304.53,304.53,305.87,305.87,305.87,305.87,305.87,305.87,305.87,307.21,307.21,307.21,307.21,308.55,308.55,308.55,308.55,309.89,309.89,309.89,309.89,316.60,316.60,316.60,316.60,316.60,319.28,319.28,319.28,321.96,321.96,321.96,328.67,328.67,328.67,328.67,328.67,332.69,332.69,335.38,338.06,338.06,338.06,338.06,342.08,344.76,344.76,351.47,351.47,354.15,354.15,354.15,356.84,356.84,356.84,360.86,360.86,360.86,363.54,363.54,370.25,370.25,370.25,370.25,370.25,370.25,372.93,372.93,372.93,372.93,379.64,379.64,379.64,379.64,379.64,379.64,382.32,382.32,385.00,385.00,385.00,391.71,391.71,391.71,391.71,391.71,391.71,394.39,401.09,401.09,401.09,405.12,405.12,410.48,410.48,410.48,414.51,414.51,414.51,414.51,419.87,419.87,419.87,419.87,423.89,423.89,423.89,423.89,429.26,429.26,429.26,429.26,429.26,433.28,433.28,438.65,438.65,438.65,442.67,442.67,442.67,448.04,448.04,448.04,448.04,452.06,452.06,452.06,454.74,457.42,457.42,457.42,457.42,457.42,457.42,461.45,461.45,464.13,464.13,464.13,466.81,477.54,477.54,482.91,505.71,505.71,505.71,513.75,517.78,524.48,524.48,524.48,527.16,527.16,527.16,527.16,527.16,527.16,527.16,527.16,527.16,524.48,524.48,524.48,524.48,524.48,524.48,524.48,517.78,517.78,513.75,505.71,505.71,505.71,505.71,505.71,486.93,482.91,482.91,482.91,477.54,477.54,477.54,477.54,477.54,477.54,477.54,477.54,477.54,477.54,477.54,477.54,477.54,477.54,477.54,477.54,477.54,477.54,477.54,477.54,477.54,477.54,477.54,477.54,477.54,477.54,477.54,477.54,477.54,477.54,482.91,482.91,486.93,486.93,505.71,505.71,513.75,513.75,513.75,517.78,517.78,524.48,524.48,524.48,524.48,517.78,517.78,517.78,517.78,517.78,513.75,513.75,513.75,505.71,505.71,505.71,505.71,505.71,505.71,505.71,505.71,505.71,505.71,505.71,505.71,505.71,505.71,505.71,505.71,505.71,505.71,505.71,505.71,505.71,505.71,505.71,505.71,505.71,513.75,513.75,513.75,513.75,513.75,513.75,513.75,517.78,517.78,517.78,517.78,517.78,513.75,513.75,513.75,513.75,513.75,513.75,513.75,513.75,513.75,517.78,517.78,517.78,517.78,517.78,513.75,513.75,513.75,513.75,513.75,513.75,513.75,513.75,513.75,513.75,513.75,513.75,513.75,513.75,513.75,513.75,513.75,513.75,513.75,513.75,513.75,513.75,513.75,513.75,513.75,513.75,513.75,513.75,513.75,517.78,517.78,517.78,517.78,517.78,524.48,524.48,524.48,524.48,524.48,524.48,524.48,524.48,524.48,524.48,524.48,524.48,524.48,524.48,524.48,524.48,524.48,524.48,524.48,524.48,524.48,524.48,517.78,517.78,517.78,517.78,513.75,513.75,513.75,513.75,513.75,513.75,513.75,513.75,513.75,513.75,513.75,513.75,513.75,513.75,513.75,513.75,513.75,505.71,505.71,505.71,505.71,513.75,513.75,513.75,513.75,543.26,556.67,552.65,552.65,552.65,570.08,524.48,524.48,524.48,524.48,524.48,524.48,524.48,524.48,524.48,524.48,524.48,524.48,524.48,524.48,524.48,524.48,524.48,524.48,524.48,524.48,524.48,524.48,524.48,524.48,524.48,524.48,524.48
299.16,299.16,299.16,299.16,299.16,299.16,299.16,299.16,299.16,300.51,300.51,300.51,300.51,301.85,301.85,301.85,301.85,301.85,301.85,303.19,303.19,303.19,303.19,304.53,304.53,304.53,305.87,305.87,305.87,305.87,305.87,305.87,305.87,307.21,307.21,307.21,307.21,308.55,308.55,308.55,308.55,308.55,309.89,309.89,309.89,309.89,316.60,316.60,316.60,316.60,319.28,319.28,319.28,321.96,321.96,321.96,328.67,328.67,328.67,328.67,328.67,332.69,332.69,335.38,338.06,338.06,338.06,338.06,342.08,344.76,344.76,351.47,351.47,354.15,354.15,356.84,356.84,356.84,360.86,360.86,360.86,360.86,363.54,363.54,370.25,370.25,370.25,370.25,370.25,372.93,372.93,372.93,372.93,372.93,379.64,379.64,379.64,379.64,379.64,379.64,382.32,382.32,385.00,385.00,385.00,391.71,391.71,391.71,391.71,391.71,391.71,394.39,401.09,401.09,401.09,405.12,405.12,410.48,410.48,410.48,414.51,414.51,414.51,414.51,419.87,419.87,419.87,419.87,423.89,423.89,423.89,423.89,429.26,429.26,429.26,433.28,433.28,433.28,433.28,438.65,438.65,438.65,442.67,442.67,442.67,448.04,448.04,448.04,448.04,452.06,452.06,452.06,454.74,454.74,457.42,457.42,457.42,457.42,457.42,461.45,461.45,464.13,464.13,464.13,466.81,477.54,477.54,482.91,505.71,505.71,505.71,513.75,517.78,524.48,524.48,524.48,527.16,527.16,527.16,527.16,527.16,527.16,527.16,527.16,527.16,524.48,524.48,524.48,524.48,524.48,524.48,524.48,517.78,517.78,513.75,513.75,513.75,505.71,505.71,505.71,486.93,482.91,482.91,482.91,477.54,477.54,477.54,477.54,477.54,477.54,477.54,477.54,477.54,477.54,477.54,477.54,477.54,477.54,477.54,477.54,477.54,477.54,477.54,477.54,477.54,477.54,477.54,477.54,477.54,477.54,477.54,477.54,477.54,477.54,482.91,482.91,486.93,486.93,505.71,505.71,505.71,505.71,505.71,513.75,513.75,513.75,517.78,517.78,517.78,517.78,517.78,513.75,513.75,513.75,513.75,513.75,513.75,505.71,505.71,505.71,505.71,505.71,505.71,505.71,505.71,505.71,505.71,505.71,505.71,505.71,505.71,505.71,505.71,505.71,505.71,505.71,505.71,505.71,505.71,505.71,505.71,505.71,513.75,513.75,513.75,513.75,513.75,513.75,513.75,517.78,517.78,517.78,517.78,517.78,513.75,513.75,513.75,513.75,513.75,513.75,513.75,513.75,513.75,513.75,513.75,513.75,513.75,513.75,513.75,513.75,513.75,513.75,513.75,513.75,513.75,513.75,513.75,513.75,513.75,513.75,513.75,513.75,513.75,513.75,513.75,513.75,513.75,513.75,513.75,513.75,513.75,513.75,517.78,517.78,517.78,517.78,517.78,524.48,524.48,524.48,524.48,524.48,524.48,524.48,524.48,524.48,524.48,524.48,524.48,524.48,524.48,524.48,524.48,524.48,524.48,524.48,524.48,524.48,524.48,524.48,524.48,524.48,524.48,524.48,524.48,517.78,517.78,517.78,513.75,513.75,513.75,513.75,513.75,513.75,513.75,513.75,513.75,513.75,513.75,513.75,513.75,513.75,513.75,513.75,513.75,505.71,505.71,505.71,505.71,513.75,513.75,513.75,517.78,540.58,549.96,570.08,555.33,555.33,555.33,524.48,524.48,524.48,524.48,524.48,524.48,524.48,524.48,524.48,524.48,524.48,524.48,524.48,524.48,524.48,524.48,524.48,524.48,524.48,524.48,524.48,524.48,524.48,524.48,524.48,524.48,524.48
299.16,299.16,299.16,299.16,299.16,299.16,299.16,299.16,300.51,300.51,300.51,300.51,300.51,301.85,301.85,301.85,301.85,301.85,301.85,303.19,303.19,303.19,303.19,304.53,304.53,304.53,305.87,305.87,305.87,305.87,305.87,305.87,305.87,307.21,307.21,307.21,307.21,308.55,308.55,308.55,308.55,308.55,309.89,309.89,309.89,309.89,316.60,316.60,316.60,316.60,319.28,319.28,319.28,321.96,321.96,321.96,328.67,328.67,328.67,328.67,328.67,332.69,332.69,335.38,338.06,338.06,338.06,342.08,344.76,344.76,344.76,351.47,351.47,354.15,354.15,356.84,356.84,356.84,360.86,360.86,360.86,360.86,363.54,363.54,370.25,370.25,370.25,370.25,370.25,372.93,372.93,372.93,372.93,372.93,379.64,379.64,379.64,379.64,379.64,379.64,382.32,382.32,385.00,385.00,385.00,391.71,391.71,391.71,391.71,391.71,391.71,394.39,401.09,401.09,401.09,405.12,405.12,410.48,410.48,410.48,414.51,414.51,414.51,414.51,419.87,419.87,419.87,419.87,423.89,423.89,423.89,423.89,429.26,429.26,429.26,433.28,433.28,433.28,433.28,438.65,438.65,438.65,442.67,442.67,442.67,448.04,448.04,448.04,448.04,448.04,452.06,452.06,452.06,454.74,454.74,454.74,457.42,457.42,457.42,461.45,461.45,464.13,464.13,464.13,466.81,477.54,477.54,482.91,505.71,505.71,505.71,513.75,517.78,524.48,524.48,524.48,527.16,527.16,527.16,527.16,527.16,527.16,527.16,527.16,524.48,524.48,524.48,524.48,524.48,524.48,524.48,524.48,517.78,517.78,513.75,513.75,513.75,505.71,505.71,505.71,486.93,482.91,482.91,482.91,477.54,477.54,477.54,477.54,477.54,477.54,477.54,477.54,477.54,477.54,477.54,477.54,477.54,477.54,477.54,477.54,477.54,477.54,477.54,477.54,477.54,477.54,477.54,477.54,477.54,477.54,477.54,477.54,477.54,477.54,482.91,482.91,486.93,486.93,505.71,505.71,505.71,505.71,505.71,513.75,513.75,513.75,517.78,517.78,517.78,517.78,517.78,513.75,513.75,513.75,513.75,513.75,513.75,513.75,505.71,505.71,505.71,505.71,505.71,505.71,505.71,505.71,505.71,505.71,505.71,505.71,505.71,505.71,505.71,505.71,505.71,505.71,505.71,505.71,505.71,505.71,505.71,505.71,513.75,513.75,513.75,513.75,513.75,513.75,513.75,517.78,517.78,517.78,513.75,513.75,513.75,513.75,513.75,513.75,513.75,513.75,513.75,513.75,513.75,513.75,513.75,513.75,513.75,513.75,513.75,513.75,513.75,513.75,513.75,513.75,513.75,513.75,513.75,513.75,513.75,513.75,513.75,513.75,513.75,513.75,513.75,513.75,513.75,513.75,513.75,513.75,513.75,513.75,517.78,517.78,517.78,517.78,517.78,524.48,524.48,524.48,524.48,524.48,524.48,524.48,524.48,524.48,524.48,524.48,524.48,524.48,524.48,524.48,524.48,527.16,527.16,527.16,527.16,527.16,524.48,524.48,524.48,524.48,524.48,524.48,524.48,517.78,517.78,517.78,513.75,513.75,513.75,513.75,513.75,513.75,513.75,513.75,513.75,513.75,513.75,513.75,517.78,513.75,513.75,513.75,513.75,513.75,513.75,505.71,505.71,513.75,517.78,517.78,524.48,540.58,549.96,556.67,562.04,562.04,570.08,524.48,524.48,524.48,524.48,524.48,524.48,524.48,524.48,524.48,524.48,524.48,524.48,524.48,524.48,524.48,524.48,524.48,524.48,524.48,524.48,524.48,524.48,524.48,524.48,524.48,524.48,524.48
299.16,299.16,299.16,299.16,299.16,299.16,299.16,299.16,300.51,300.51,300.51,300.51,300.51,301.85,301.85,301.85,301.85,301.85,301.85,303.19,303.19,303.19,303.19,304.53,304.53,304.53,305.87,305.87,305.87,305.87,305.87,305.87,305.87,307.21,307.21,307.21,307.21,308.55,308.55,308.55,308.55,308.55,309.89,309.89,309.89,309.89,316.60,316.60,316.60,316.60,319.28,319.28,319.28,321.96,321.96,321.96,328.67,328.67,328.67,328.67,328.67,332.69,332.69,335.38,338.06,338.06,338.06,342.08,344.76,351.47,351.47,351.47,351.47,354.15,354.15,356.84,356.84,356.84,360.86,360.86,360.86,360.86,363.54,363.54,370.25,370.25,370.25,370.25,370.25,372.93,372.93,372.93,372.93,372.93,379.64,379.64,379.64,379.64,379.64,379.64,382.32,382.32,385.00,385.00,385.00,391.71,391.71,391.71,391.71,391.71,391.71,394.39,401.09,401.09,401.09,405.12,405.12,410.48,410.48,410.48,414.51,414.51,414.51,414.51,419.87,419.87,419.87,419.87,423.89,423.89,423.89,423.89,429.26,429.26,429.26,433.28,433.28,433.28,433.28,438.65,438.65,438.65,442.67,442.67,442.67,448.04,448.04,448.04,448.04,448.04,452.06,452.06,452.06,454.74,454.74,454.74,457.42,457.42,457.42,461.45,461.45,464.13,464.13,464.13,466.81,476.20,482.91,482.91,505.71,505.71,505.71,513.75,517.78,524.48,524.48,524.48,527.16,527.16,527.16,527.16,527.16,527.16,527.16,527.16,524.48,524.48,524.48,524.48,524.48,524.48,524.48,524.48,517.78,517.78,513.75,513.75,513.75,505.71,505.71,505.71,486.93,486.93,486.93,482.91,477.54,477.54,477.54,477.54,477.54,477.54,477.54,477.54,477.54,477.54,477.54,477.54,477.54,477.54,477.54,477.54,477.54,477.54,477.54,477.54,477.54,477.54,477.54,477.54,477.54,477.54,477.54,477.54,477.54,477.54,482.91,482.91,486.93,486.93,505.71,505.71,505.71,505.71,505.71,513.75,513.75,513.75,513.75,513.75,513.75,513.75,513.75,513.75,513.75,513.75,513.75,513.75,513.75,513.75,505.71,505.71,505.71,505.71,505.71,505.71,505.71,505.71,505.71,505.71,505.71,505.71,505.71,505.71,505.71,505.71,505.71,505.71,505.71,505.71,505.71,505.71,505.71,505.71,513.75,513.75,513.75,513.75,517.78,517.78,517.78,517.78,517.78,517.78,513.75,513.75,513.75,513.75,513.75,513.75,513.75,513.75,513.75,513.75,505.71,505.71,505.71,505.71,505.71,505.71,505.71,505.71,505.71,505.71,505.71,505.71,505.71,505.71,513.75,513.75,513.75,513.75,513.75,513.75,513.75,513.75,513.75,513.75,513.75,517.78,517.78,517.78,517.78,517.78,517.78,524.48,524.48,524.48,524.48,524.48,524.48,524.48,524.48,524.48,524.48,524.48,527.16,527.16,527.16,527.16,527.16,527.16,527.16,527.16,527.16,527.16,527.16,527.16,527.16,527.16,524.48,524.48,524.48,524.48,524.48,524.48,524.48,517.78,517.78,517.78,513.75,513.75,513.75,513.75,513.75,513.75,513.75,513.75,513.75,513.75,513.75,513.75,517.78,513.75,513.75,513.75,513.75,513.75,513.75,505.71,505.71,513.75,517.78,517.78,524.48,543.26,549.96,556.67,562.04,562.04,570.08,524.48,524.48,524.48,524.48,524.48,524.48,524.48,524.48,524.48,524.48,524.48,524.48,524.48,524.48,524.48,524.48,524.48,524.48,524.48,524.48,524.48,524.48,524.48,524.48,524.48,524.48,524.48
299.16,299.16,299.16,299.16,299.16,299.16,299.16,299.16,300.51,300.51,300.51,300.51,300.51,301.85,301.85,301.85,301.85,301.85,301.85,303.19,303.19,303.19,303.19,304.53,304.53,304.53,305.87,305.87,305.87,305.87,305.87,305.87,305.87,307.21,307.21,307.21,307.21,307.21,308.55,308.55,308.55,308.55,309.89,309.89,309.89,309.89,316.60,316.60,316.60,316.60,319.28,319.28,319.28,321.96,321.96,321.96,328.67,328.67,328.67,328.67,332.69,335.38,335.38,338.06,338.06,342.08,342.08,342.08,344.76,351.47,351.47,351.47,351.47,354.15,354.15,356.84,356.84,356.84,360.86,360.86,360.86,360.86,363.54,363.54,370.25,370.25,370.25,370.25,370.25,372.93,372.93,372.93,372.93,379.64,379.64,379.64,379.64,379.64,379.64,379.64,382.32,382.32,385.00,385.00,385.00,391.71,391.71,391.71,391.71,394.39,394.39,401.09,401.09,405.12,405.12,405.12,410.48,410.48,410.48,410.48,414.51,414.51,414.51,414.51,419.87,419.87,419.87,419.87,423.89,423.89,423.89,423.89,429.26,429.26,429.26,433.28,433.28,433.28,438.65,438.65,438.65,438.65,442.67,442.67,442.67,448.04,448.04,448.04,448.04,448.04,452.06,452.06,452.06,454.74,454.74,454.74,457.42,457.42,457.42,461.45,461.45,464.13,464.13,464.13,466.81,477.54,477.54,482.91,505.71,505.71,505.71,513.75,517.78,524.48,524.48,524.48,527.16,527.16,527.16,527.16,527.16,527.16,527.16,527.16,524.48,524.48,524.48,524.48,524.48,524.48,524.48,524.48,524.48,524.48,517.78,513.75,513.75,505.71,505.71,505.71,505.71,486.93,486.93,482.91,477.54,477.54,477.54,477.54,477.54,477.54,477.54,477.54,477.54,477.54,477.54,477.54,477.54,477.54,477.54,477.54,477.54,477.54,477.54,477.54,477.54,477.54,477.54,477.54,477.54,477.54,477.54,477.54,482.91,482.91,482.91,482.91,486.93,486.93,505.71,505.71,505.71,505.71,505.71,505.71,505.71,513.75,513.75,513.75,513.75,513.75,513.75,513.75,513.75,513.75,513.75,513.75,513.75,513.75,513.75,505.71,505.71,505.71,505.71,505.71,505.71,505.71,505.71,505.71,505.71,505.71,505.71,505.71,505.71,505.71,505.71,505.71,505.71,505.71,505.71,505.71,505.71,505.71,513.75,513.75,513.75,513.75,517.78,517.78,517.78,517.78,517.78,517.78,513.75,513.75,513.75,513.75,513.75,513.75,513.75,505.71,505.71,505.71,505.71,505.71,505.71,505.71,505.71,505.71,505.71,505.71,505.71,505.71,505.71,505.71,505.71,505.71,513.75,513.75,513.75,513.75,513.75,513.75,513.75,513.75,513.75,513.75,517.78,517.78,517.78,517.78,517.78,517.78,524.48,524.48,524.48,524.48,524.48,524.48,524.48,524.48,527.16,527.16,527.16,527.16,532.53,532.53,532.53,532.53,532.53,532.53,532.53,532.53,532.53,532.53,532.53,532.53,527.16,527.16,527.16,524.48,524.48,524.48,524.48,524.48,524.48,517.78,517.78,517.78,513.75,513.75,513.75,513.75,513.75,513.75,513.75,513.75,513.75,513.75,513.75,517.78,517.78,513.75,513.75,513.75,513.75,513.75,513.75,505.71,505.71,513.75,517.78,517.78,524.48,540.58,549.96,556.67,556.67,556.67,570.08,536.55,524.48,524.48,524.48,524.48,524.48,524.48,524.48,524.48,524.48,524.48,524.48,524.48,524.48,524.48,524.48,524.48,524.48,524.48,524.48,524.48,524.48,524.48,524.48,524.48,524.48,524.48
299.16,299.16,299.16,299.16,299.16,299.16,299.16,299.16,300.51,300.51,300.51,300.51,300.51,301.85,301.85,301.85,301.85,301.85,301.85,303.19,303.19,303.19,303.19,304.53,304.53,304.53,305.87,305.87,305.87,305.87,305.87,305.87,305.87,307.21,307.21,307.21,307.21,307.21,308.55,308.55,308.55,308.55,309.89,309.89,309.89,309.89,316.60,316.60,316.60,316.60,319.28,319.28,319.28,321.96,321.96,321.96,328.67,328.67,328.67,328.67,332.69,335.38,335.38,338.06,338.06,342.08,342.08,342.08,344.76,351.47,351.47,351.47,351.47,354.15,354.15,356.84,356.84,356.84,360.86,360.86,360.86,360.86,363.54,363.54,370.25,370.25,370.25,370.25,370.25,372.93,372.93,372.93,372.93,379.64,379.64,379.64,379.64,379.64,382.32,382.32,382.32,385.00,385.00,385.00,391.71,391.71,391.71,391.71,391.71,394.39,394.39,401.09,401.09,405.12,405.12,405.12,410.48,410.48,410.48,414.51,414.51,414.51,414.51,414.51,419.87,419.87,419.87,419.87,423.89,423.89,423.89,429.26,429.26,429.26,429.26,433.28,433.28,433.28,438.65,438.65,438.65,442.67,442.67,442.67,442.67,448.04,448.04,448.04,448.04,448.04,452.06,452.06,452.06,454.74,454.74,454.74,454.74,457.42,457.42,457.42,461.45,461.45,461.45,464.13,466.81,477.54,477.54,482.91,486.93,505.71,505.71,513.75,517.78,524.48,524.48,524.48,527.16,527.16,527.16,527.16,527.16,527.16,527.16,527.16,524.48,524.48,524.48,524.48,524.48,524.48,524.48,524.48,524.48,524.48,517.78,513.75,513.75,505.71,505.71,505.71,505.71,486.93,486.93,482.91,477.54,477.54,477.54,477.54,477.54,477.54,477.54,477.54,477.54,477.54,477.54,477.54,477.54,477.54,477.54,477.54,477.54,477.54,477.54,477.54,477.54,477.54,477.54,477.54,477.54,477.54,477.54,477.54,482.91,482.91,482.91,486.93,486.93,486.93,505.71,505.71,505.71,505.71,505.71,505.71,505.71,513.75,513.75,513.75,513.75,513.75,513.75,513.75,517.78,517.78,513.75,513.75,513.75,513.75,513.75,513.75,513.75,513.75,513.75,513.75,505.71,505.71,505.71,505.71,505.71,505.71,505.71,505.71,505.71,505.71,505.71,505.71,505.71,505.71,505.71,513.75,513.75,513.75,513.75,517.78,517.78,517.78,517.78,517.78,517.78,517.78,517.78,517.78,517.78,517.78,513.75,513.75,513.75,513.75,505.71,505.71,505.71,505.71,505.71,505.71,505.71,505.71,505.71,505.71,505.71,505.71,505.71,505.71,505.71,505.71,505.71,505.71,505.71,505.71,513.75,513.75,513.75,513.75,513.75,513.75,513.75,513.75,517.78,517.78,517.78,517.78,517.78,517.78,524.48,524.48,524.48,524.48,524.48,524.48,524.48,527.16,527.16,527.16,532.53,532.53,532.53,532.53,532.53,540.58,540.58,540.58,540.58,540.58,540.58,532.53,532.53,532.53,532.53,532.53,527.16,527.16,527.16,524.48,524.48,524.48,524.48,517.78,517.78,517.78,513.75,513.75,513.75,513.75,513.75,513.75,513.75,513.75,513.75,517.78,517.78,517.78,517.78,517.78,513.75,513.75,513.75,513.75,513.75,505.71,505.71,517.78,524.48,524.48,532.53,540.58,549.96,552.65,556.67,556.67,570.08,536.55,524.48,524.48,524.48,524.48,524.48,524.48,524.48,524.48,524.48,524.48,524.48,524.48,524.48,524.48,524.48,524.48,524.48,524.48,524.48,524.48,524.48,524.48,524.48,524.48,524.48,536.55
299.16,299.16,299.16,299.16,299.16,299.16,299.16,299.16,300.51,300.51,300.51,300.51,300.51,301.85,301.85,301.85,301.85,301.85,303.19,303.19,303.19,303.19,303.19,304.53,304.53,304.53,305.87,305.87,305.87,305.87,305.87,305.87,305.87,307.21,307.21,307.21,307.21,307.21,308.55,308.55,308.55,308.55,309.89,309.89,309.89,309.89,316.60,316.60,316.60,316.60,319.28,319.28,319.28,321.96,321.96,321.96,328.67,328.67,328.67,328.67,332.69,335.38,335.38,338.06,338.06,342.08,342.08,344.76,344.76,351.47,351.47,351.47,354.15,354.15,354.15,356.84,356.84,356.84,360.86,360.86,360.86,360.86,363.54,370.25,370.25,370.25,370.25,370.25,370.25,372.93,372.93,372.93,372.93,379.64,379.64,379.64,379.64,379.64,382.32,382.32,382.32,385.00,385.00,385.00,391.71,391.71,391.71,391.71,391.71,394.39,394.39,401.09,401.09,405.12,405.12,405.12,410.48,410.48,410.48,414.51,414.51,414.51,414.51,414.51,419.87,419.87,419.87,419.87,423.89,423.89,423.89,429.26,429.26,429.26,429.26,433.28,433.28,433.28,438.65,438.65,438.65,442.67,442.67,442.67,442.67,448.04,448.04,448.04,448.04,448.04,452.06,452.06,452.06,454.74,454.74,454.74,454.74,457.42,457.42,457.42,461.45,461.45,461.45,464.13,466.81,477.54,477.54,477.54,486.93,505.71,505.71,505.71,513.75,524.48,524.48,524.48,527.16,527.16,527.16,527.16,527.16,527.16,527.16,527.16,527.16,524.48,524.48,524.48,524.48,524.48,524.48,524.48,524.48,524.48,517.78,513.75,513.75,513.75,505.71,505.71,505.71,486.93,486.93,482.91,477.54,477.54,477.54,477.54,477.54,477.54,477.54,477.54,477.54,477.54,477.54,477.54,477.54,477.54,477.54,477.54,477.54,477.54,477.54,477.54,477.54,477.54,477.54,477.54,477.54,477.54,477.54,477.54,482.91,482.91,482.91,486.93,486.93,486.93,505.71,505.71,505.71,505.71,505.71,505.71,505.71,513.75,513.75,513.75,513.75,513.75,513.75,513.75,517.78,517.78,517.78,517.78,517.78,517.78,517.78,513.75,513.75,513.75,513.75,513.75,513.75,505.71,505.71,505.71,505.71,505.71,505.71,505.71,505.71,505.71,505.71,505.71,505.71,505.71,513.75,513.75,513.75,513.75,517.78,517.78,517.78,524.48,524.48,524.48,524.48,524.48,524.48,517.78,517.78,517.78,513.75,513.75,513.75,513.75,505.71,505.71,505.71,505.71,505.71,505.71,505.71,505.71,505.71,505.71,505.71,505.71,505.71,505.71,505.71,505.71,505.71,505.71,505.71,505.71,505.71,513.75,513.75,513.75,513.75,513.75,513.75,513.75,517.78,517.78,517.78,517.78,524.48,524.48,524.48,524.48,524.48,524.48,524.48,527.16,527.16,527.16,527.16,527.16,532.53,532.53,532.53,532.53,532.53,540.58,540.58,540.58,540.58,540.58,540.58,532.53,532.53,532.53,532.53,532.53,527.16,527.16,527.16,524.48,524.48,524.48,524.48,517.78,517.78,517.78,513.75,513.75,513.75,513.75,513.75,513.75,513.75,513.75,513.75,513.75,517.78,517.78,517.78,517.78,513.75,513.75,513.75,513.75,513.75,505.71,505.71,517.78,524.48,524.48,540.58,547.28,549.96,552.65,556.67,556.67,570.08,536.55,524.48,524.48,524.48,524.48,524.48,524.48,524.48,524.48,524.48,524.48,524.48,524.48,524.48,524.48,524.48,524.48,524.48,524.48,524.48,524.48,524.48,524.48,536.55,536.55,536.55,536.55
299.16,299.16,299.16,299.16,299.16,299.16,299.16,299.16,300.51,300.51,300.51,300.51,300.51,300.51,301.85,301.85,301.85,301.85,303.19,303.19,303.19,303.19,303.19,304.53,304.53,304.53,305.87,305.87,305.87,305.87,305.87,305.87,305.87,307.21,307.21,307.21,307.21,307.21,308.55,308.55,308.55,308.55,309.89,309.89,309.89,309.89,316.60,316.60,316.60,316.60,319.28,319.28,319.28,321.96,321.96,321.96,328.67,328.67,328.67,328.67,332.69,335.38,335.38,338.06,338.06,342.08,342.08,344.76,351.47,351.47,351.47,351.47,354.15,354.15,354.15,356.84,356.84,356.84,360.86,360.86,360.86,360.86,363.54,370.25,370.25,370.25,370.25,372.93,372.93,372.93,372.93,372.93,372.93,379.64,379.64,379.64,379.64,379.64,382.32,382.32,382.32,385.00,385.00,385.00,391.71,391.71,391.71,391.71,391.71,394.39,394.39,401.09,401.09,405.12,405.12,405.12,410.48,410.48,410.48,414.51,414.51,414.51,414.51,419.87,419.87,419.87,419.87,423.89,423.89,423.89,423.89,429.26,429.26,429.26,429.26,433.28,433.28,433.28,438.65,438.65,438.65,442.67,442.67,442.67,442.67,448.04,448.04,448.04,448.04,448.04,452.06,452.06,452.06,452.06,452.06,454.74,454.74,457.42,457.42,457.42,461.45,461.45,461.45,464.13,466.81,477.54,477.54,477.54,486.93,505.71,505.71,505.71,513.75,524.48,524.48,524.48,527.16,527.16,527.16,527.16,527.16,527.16,527.16,527.16,527.16,524.48,524.48,524.48,524.48,524.48,524.48,524.48,524.48,524.48,524.48,517.78,517.78,513.75,505.71,505.71,505.71,486.93,486.93,482.91,477.54,477.54,477.54,477.54,477.54,477.54,477.54,477.54,477.54,477.54,477.54,477.54,477.54,477.54,477.54,477.54,477.54,477.54,477.54,477.54,477.54,477.54,477.54,477.54,477.54,477.54,477.54,477.54,482.91,482.91,482.91,486.93,486.93,486.93,505.71,505.71,505.71,505.71,505.71,505.71,505.71,513.75,513.75,513.75,513.75,513.75,517.78,517.78,517.78,517.78,517.78,517.78,517.78,517.78,517.78,513.75,513.75,513.75,513.75,513.75,513.75,505.71,505.71,505.71,505.71,505.71,505.71,505.71,505.71,505.71,505.71,505.71,505.71,505.71,513.75,513.75,513.75,513.75,517.78,517.78,517.78,524.48,524.48,524.48,524.48,524.48,524.48,524.48,517.78,517.78,517.78,513.75,513.75,513.75,505.71,505.71,505.71,505.71,505.71,505.71,505.71,505.71,505.71,505.71,505.71,505.71,505.71,505.71,505.71,505.71,505.71,505.71,505.71,505.71,505.71,513.75,513.75,513.75,513.75,513.75,513.75,513.75,517.78,517.78,517.78,517.78,524.48,524.48,524.48,524.48,524.48,524.48,524.48,527.16,527.16,527.16,532.53,532.53,532.53,532.53,540.58,540.58,540.58,540.58,540.58,540.58,540.58,540.58,540.58,540.58,540.58,540.58,532.53,532.53,532.53,527.16,527.16,524.48,524.48,524.48,524.48,517.78,517.78,517.78,513.75,513.75,513.75,513.75,513.75,513.75,513.75,513.75,513.75,513.75,517.78,517.78,517.78,517.78,513.75,513.75,513.75,513.75,513.75,505.71,505.71,517.78,524.48,524.48,540.58,547.28,549.96,552.65,552.65,552.65,570.08,536.55,536.55,536.55,536.55,524.48,524.48,524.48,524.48,524.48,524.48,524.48,524.48,524.48,524.48,524.48,524.48,524.48,524.48,524.48,524.48,524.48,524.48,524.48,536.55,536.55,536.55,536.55
299.16,299.16,299.16,299.16,299.16,299.16,299.16,299.16,300.51,300.51,300.51,300.51,300.51,300.51,301.85,301.85,301.85,301.85,303.19,303.19,303.19,303.19,303.19,304.53,304.53,304.53,305.87,305.87,305.87,305.87,305.87,305.87,305.87,307.21,307.21,307.21,307.21,307.21,308.55,308.55,308.55,308.55,309.89,309.89,309.89,309.89,316.60,316.60,316.60,316.60,319.28,319.28,319.28,321.96,321.96,321.96,328.67,328.67,328.67,328.67,332.69,335.38,335.38,338.06,338.06,342.08,342.08,344.76,351.47,351.47,351.47,351.47,354.15,354.15,354.15,356.84,356.84,356.84,360.86,360.86,363.54,363.54,363.54,370.25,370.25,370.25,370.25,372.93,372.93,372.93,372.93,379.64,379.64,379.64,379.64,379.64,379.64,382.32,382.32,382.32,385.00,385.00,391.71,391.71,391.71,391.71,391.71,391.71,394.39,394.39,394.39,401.09,401.09,405.12,405.12,405.12,410.48,410.48,410.48,414.51,414.51,414.51,414.51,419.87,419.87,419.87,419.87,423.89,423.89,423.89,423.89,429.26,429.26,429.26,429.26,433.28,433.28,433.28,438.65,438.65,438.65,442.67,442.67,442.67,442.67,448.04,448.04,448.04,448.04,448.04,452.06,452.06,452.06,452.06,452.06,454.74,454.74,457.42,457.42,457.42,457.42,457.42,461.45,464.13,464.13,464.13,466.81,477.54,486.93,505.71,505.71,505.71,513.75,524.48,524.48,524.48,527.16,527.16,527.16,527.16,527.16,527.16,527.16,527.16,527.16,524.48,524.48,524.48,524.48,524.48,524.48,524.48,524.48,524.48,524.48,517.78,517.78,513.75,505.71,505.71,505.71,505.71,505.71,482.91,482.91,482.91,477.54,477.54,477.54,477.54,477.54,477.54,477.54,477.54,477.54,477.54,477.54,477.54,477.54,477.54,477.54,477.54,477.54,477.54,477.54,477.54,477.54,477.54,477.54,477.54,477.54,482.91,482.91,482.91,486.93,486.93,505.71,505.71,505.71,505.71,505.71,505.71,505.71,513.75,513.75,513.75,513.75,513.75,513.75,517.78,517.78,517.78,524.48,524.48,524.48,524.48,524.48,524.48,517.78,517.78,517.78,517.78,517.78,517.78,513.75,513.75,513.75,505.71,505.71,505.71,505.71,505.71,505.71,505.71,505.71,513.75,513.75,513.75,513.75,517.78,517.78,517.78,524.48,524.48,524.48,524.48,524.48,524.48,524.48,524.48,524.48,524.48,517.78,517.78,517.78,513.75,513.75,513.75,505.71,505.71,505.71,505.71,505.71,505.71,505.71,505.71,505.71,505.71,505.71,505.71,505.71,505.71,505.71,505.71,505.71,505.71,505.71,505.71,505.71,513.75,513.75,513.75,513.75,513.75,513.75,513.75,517.78,517.78,517.78,524.48,524.48,524.48,524.48,524.48,524.48,524.48,527.16,527.16,527.16,532.53,532.53,532.53,532.53,540.58,540.58,540.58,540.58,540.58,540.58,540.58,540.58,540.58,540.58,540.58,540.58,540.58,540.58,540.58,532.53,527.16,527.16,527.16,524.48,524.48,524.48,524.48,517.78,517.78,513.75,513.75,513.75,513.75,513.75,513.75,513.75,513.75,517.78,517.78,517.78,517.78,517.78,517.78,517.78,517.78,513.75,513.75,513.75,505.71,505.71,524.48,524.48,524.48,540.58,547.28,549.96,552.65,552.65,552.65,570.08,536.55,536.55,536.55,536.55,536.55,536.55,524.48,524.48,524.48,524.48,524.48,524.48,524.48,524.48,524.48,524.48,524.48,524.48,524.48,524.48,524.48,524.48,536.55,536.55,536.55,536.55,536.55
299.16,299.16,299.16,299.16,299.16,299.16,299.16,299.16,300.51,300.51,300.51,300.51,300.51,300.51,301.85,301.85,301.85,301.85,303.19,303.19,303.19,303.19,303.19,304.53,305.87,305.87,305.87,305.87,305.87,305.87,305.87,305.87,305.87,307.21,307.21,307.21,307.21,307.21,308.55,308.55,308.55,308.55,309.89,309.89,309.89,309.89,316.60,316.60,316.60,316.60,319.28,319.28,319.28,321.96,321.96,328.67,328.67,328.67,328.67,332.69,332.69,335.38,335.38,338.06,338.06,342.08,342.08,344.76,351.47,351.47,351.47,351.47,351.47,351.47,354.15,356.84,356.84,356.84,360.86,360.86,363.54,363.54,363.54,370.25,370.25,370.25,370.25,372.93,372.93,372.93,372.93,379.64,379.64,379.64,379.64,379.64,379.64,382.32,382.32,382.32,385.00,385.00,391.71,391.71,391.71,391.71,391.71,391.71,394.39,394.39,394.39,401.09,401.09,405.12,405.12,405.12,410.48,410.48,410.48,414.51,414.51,414.51,414.51,419.87,419.87,419.87,419.87,423.89,423.89,423.89,423.89,429.26,429.26,429.26,429.26,433.28,433.28,433.28,438.65,438.65,438.65,442.67,442.67,442.67,442.67,448.04,448.04,448.04,448.04,448.04,452.06,452.06,452.06,452.06,452.06,454.74,454.74,457.42,457.42,457.42,457.42,457.42,461.45,464.13,464.13,464.13,466.81,477.54,482.91,505.71,505.71,505.71,513.75,513.75,524.48,524.48,527.16,527.16,532.53,532.53,532.53,532.53,532.53,532.53,532.53,527.16,527.16,527.16,527.16,524.48,524.48,524.48,524.48,524.48,524.48,524.48,524.48,517.78,513.75,513.75,505.71,505.71,505.71,482.91,477.54,477.54,477.54,477.54,477.54,477.54,477.54,477.54,477.54,477.54,477.54,477.54,477.54,477.54,477.54,477.54,477.54,477.54,477.54,477.54,477.54,477.54,477.54,477.54,477.54,477.54,477.54,482.91,482.91,482.91,486.93,486.93,505.71,505.71,505.71,505.71,505.71,513.75,513.75,513.75,513.75,517.78,517.78,517.78,517.78,524.48,524.48,524.48,524.48,524.48,524.48,524.48,524.48,524.48,524.48,524.48,524.48,524.48,517.78,517.78,517.78,513.75,513.75,513.75,513.75,513.75,513.75,513.75,513.75,513.75,513.75,513.75,517.78,517.78,517.78,517.78,524.48,524.48,524.48,524.48,524.48,524.48,524.48,524.48,524.48,524.48,524.48,524.48,517.78,517.78,517.78,513.75,513.75,513.75,505.71,505.71,505.71,505.71,505.71,505.71,505.71,505.71,505.71,505.71,505.71,505.71,505.71,505.71,505.71,505.71,505.71,505.71,505.71,505.71,505.71,513.75,513.75,513.75,513.75,513.75,513.75,513.75,517.78,517.78,517.78,524.48,524.48,524.48,524.48,524.48,524.48,524.48,527.16,527.16,527.16,532.53,532.53,532.53,532.53,540.58,540.58,540.58,540.58,540.58,540.58,540.58,540.58,540.58,540.58,540.58,540.58,540.58,540.58,540.58,532.53,527.16,527.16,527.16,524.48,524.48,524.48,524.48,517.78,517.78,517.78,513.75,513.75,513.75,513.75,513.75,513.75,517.78,517.78,517.78,517.78,517.78,517.78,517.78,517.78,517.78,513.75,513.75,513.75,513.75,513.75,524.48,524.48,524.48,540.58,548.62,549.96,552.65,552.65,556.67,570.08,536.55,536.55,536.55,536.55,536.55,536.55,524.48,524.48,524.48,524.48,524.48,524.48,524.48,524.48,524.48,524.48,524.48,524.48,524.48,536.55,536.55,536.55,536.55,536.55,536.55,536.55,536.55
299.16,299.16,299.16,299.16,299.16,299.16,299.16,299.16,300.51,300.51,300.51,300.51,300.51,300.51,301.85,301.85,301.85,301.85,303.19,303.19,303.19,303.19,303.19,304.53,305.87,305.87,305.87,305.87,305.87,305.87,305.87,305.87,305.87,307.21,307.21,307.21,307.21,307.21,308.55,308.55,308.55,308.55,309.89,309.89,309.89,309.89,316.60,316.60,316.60,316.60,319.28,319.28,319.28,321.96,321.96,328.67,328.67,328.67,328.67,332.69,332.69,335.38,335.38,338.06,338.06,342.08,342.08,344.76,344.76,351.47,351.47,351.47,351.47,351.47,354.15,356.84,356.84,356.84,360.86,360.86,360.86,360.86,363.54,370.25,370.25,370.25,370.25,372.93,372.93,372.93,372.93,379.64,379.64,379.64,379.64,382.32,382.32,382.32,385.00,385.00,385.00,391.71,391.71,391.71,391.71,391.71,391.71,391.71,394.39,401.09,401.09,401.09,405.12,405.12,405.12,410.48,410.48,410.48,410.48,414.51,414.51,414.51,414.51,419.87,419.87,419.87,419.87,423.89,423.89,423.89,423.89,429.26,429.26,429.26,429.26,433.28,433.28,433.28,438.65,438.65,438.65,442.67,442.67,442.67,442.67,448.04,448.04,448.04,448.04,448.04,452.06,452.06,452.06,452.06,452.06,454.74,454.74,457.42,457.42,457.42,457.42,457.42,461.45,464.13,464.13,464.13,466.81,477.54,482.91,505.71,505.71,505.71,513.75,513.75,524.48,524.48,527.16,527.16,532.53,540.58,540.58,540.58,540.58,540.58,540.58,540.58,532.53,532.53,532.53,532.53,532.53,527.16,527.16,527.16,524.48,524.48,524.48,517.78,513.75,513.75,513.75,505.71,505.71,482.91,477.54,477.54,477.54,477.54,477.54,477.54,477.54,477.54,477.54,477.54,477.54,477.54,477.54,477.54,477.54,477.54,477.54,477.54,477.54,477.54,477.54,477.54,477.54,477.54,477.54,482.91,482.91,482.91,486.93,486.93,486.93,505.71,505.71,505.71,505.71,505.71,505.71,513.75,513.75,513.75,513.75,517.78,517.78,517.78,517.78,524.48,524.48,524.48,524.48,524.48,524.48,524.48,524.48,524.48,524.48,524.48,524.48,524.48,517.78,517.78,517.78,513.75,513.75,513.75,513.75,513.75,513.75,513.75,513.75,513.75,513.75,513.75,524.48,524.48,524.48,524.48,524.48,524.48,524.48,524.48,524.48,524.48,524.48,524.48,524.48,524.48,524.48,524.48,524.48,524.48,517.78,513.75,513.75,513.75,505.71,505.71,505.71,505.71,505.71,505.71,505.71,505.71,505.71,505.71,505.71,505.71,505.71,505.71,505.71,505.71,505.71,505.71,505.71,505.71,505.71,513.75,513.75,513.75,513.75,513.75,513.75,513.75,517.78,517.78,517.78,524.48,524.48,524.48,524.48,524.48,524.48,524.48,527.16,527.16,527.16,532.53,532.53,532.53,532.53,540.58,540.58,540.58,540.58,540.58,540.58,540.58,540.58,540.58,540.58,540.58,540.58,540.58,540.58,540.58,532.53,532.53,532.53,527.16,524.48,524.48,524.48,524.48,517.78,517.78,517.78,513.75,513.75,513.75,513.75,513.75,513.75,517.78,517.78,517.78,517.78,517.78,517.78,517.78,517.78,517.78,513.75,513.75,513.75,513.75,513.75,524.48,524.48,524.48,540.58,548.62,549.96,552.65,552.65,556.67,570.08,536.55,536.55,536.55,536.55,536.55,536.55,524.48,524.48,524.48,524.48,524.48,524.48,524.48,524.48,524.48,524.48,524.48,524.48,524.48,536.55,536.55,536.55,536.55,536.55,536.55,536.55,536.55
299.16,299.16,299.16,299.16,299.16,299.16,299.16,299.16,299.16,299.16,300.51,300.51,300.51,300.51,301.85,301.85,301.85,301.85,303.19,303.19,303.19,303.19,304.53,304.53,305.87,305.87,305.87,305.87,305.87,305.87,305.87,305.87,305.87,307.21,307.21,307.21,307.21,307.21,308.55,308.55,308.55,308.55,309.89,309.89,309.89,309.89,316.60,316.60,316.60,316.60,319.28,319.28,319.28,321.96,321.96,328.67,328.67,328.67,328.67,332.69,332.69,335.38,335.38,338.06,338.06,342.08,342.08,344.76,344.76,351.47,351.47,351.47,351.47,351.47,354.15,356.84,356.84,356.84,360.86,360.86,360.86,360.86,363.54,370.25,370.25,370.25,372.93,372.93,372.93,372.93,379.64,379.64,379.64,379.64,379.64,382.32,382.32,382.32,385.00,385.00,385.00,391.71,391.71,391.71,391.71,391.71,394.39,394.39,394.39,401.09,401.09,401.09,405.12,405.12,405.12,410.48,410.48,410.48,410.48,414.51,414.51,414.51,414.51,419.87,419.87,419.87,419.87,423.89,423.89,423.89,423.89,429.26,429.26,429.26,429.26,433.28,433.28,433.28,438.65,438.65,438.65,442.67,442.67,442.67,442.67,448.04,448.04,448.04,448.04,448.04,452.06,452.06,452.06,452.06,452.06,454.74,454.74,457.42,457.42,457.42,457.42,457.42,461.45,464.13,464.13,464.13,466.81,477.54,482.91,482.91,505.71,505.71,513.75,513.75,524.48,524.48,527.16,527.16,532.53,540.58,540.58,540.58,540.58,540.58,540.58,540.58,532.53,532.53,532.53,540.58,540.58,540.58,540.58,540.58,532.53,527.16,527.16,524.48,517.78,517.78,517.78,505.71,505.71,486.93,482.91,482.91,477.54,477.54,477.54,477.54,477.54,477.54,477.54,477.54,477.54,477.54,477.54,477.54,477.54,477.54,477.54,477.54,477.54,477.54,477.54,477.54,477.54,477.54,477.54,482.91,482.91,482.91,486.93,486.93,505.71,505.71,505.71,505.71,513.75,513.75,513.75,513.75,517.78,524.48,524.48,524.48,524.48,524.48,524.48,524.48,524.48,524.48,524.48,527.16,527.16,524.48,524.48,524.48,524.48,524.48,524.48,524.48,524.48,524.48,524.48,517.78,517.78,517.78,517.78,517.78,517.78,517.78,517.78,517.78,517.78,517.78,524.48,524.48,524.48,524.48,524.48,524.48,524.48,524.48,524.48,524.48,524.48,524.48,524.48,524.48,524.48,524.48,524.48,524.48,517.78,513.75,513.75,513.75,505.71,505.71,505.71,505.71,505.71,505.71,505.71,505.71,505.71,505.71,505.71,505.71,505.71,505.71,505.71,505.71,505.71,505.71,505.71,505.71,513.75,513.75,513.75,513.75,513.75,513.75,513.75,517.78,517.78,517.78,517.78,524.48,524.48,524.48,524.48,524.48,524.48,527.16,527.16,527.16,527.16,532.53,532.53,532.53,532.53,540.58,540.58,540.58,540.58,540.58,540.58,540.58,540.58,540.58,540.58,540.58,540.58,540.58,540.58,540.58,540.58,532.53,532.53,527.16,527.16,527.16,524.48,524.48,524.48,524.48,517.78,517.78,517.78,517.78,517.78,517.78,517.78,517.78,517.78,517.78,517.78,517.78,517.78,517.78,517.78,517.78,513.75,513.75,513.75,513.75,513.75,524.48,527.16,527.16,540.58,548.62,549.96,552.65,552.65,556.67,555.33,536.55,536.55,536.55,536.55,536.55,536.55,524.48,524.48,524.48,524.48,524.48,524.48,524.48,524.48,524.48,536.55,536.55,536.55,536.55,536.55,536.55,536.55,536.55,536.55,536.55,536.55,536.55
299.16,299.16,299.16,299.16,299.16,299.16,299.16,299.16,299.16,299.16,300.51,300.51,300.51,300.51,301.85,301.85,301.85,301.85,303.19,303.19,303.19,303.19,304.53,304.53,305.87,305.87,305.87,305.87,305.87,305.87,305.87,305.87,305.87,307.21,307.21,307.21,307.21,307.21,308.55,308.55,308.55,308.55,309.89,309.89,309.89,309.89,316.60,316.60,316.60,316.60,319.28,319.28,319.28,321.96,321.96,328.67,328.67,328.67,328.67,332.69,335.38,338.06,338.06,338.06,338.06,342.08,342.08,344.76,344.76,344.76,351.47,351.47,351.47,351.47,354.15,356.84,356.84,356.84,360.86,360.86,360.86,360.86,363.54,370.25,370.25,370.25,372.93,372.93,372.93,372.93,379.64,379.64,379.64,379.64,379.64,382.32,382.32,382.32,385.00,385.00,385.00,391.71,391.71,391.71,391.71,391.71,394.39,394.39,394.39,401.09,401.09,401.09,405.12,405.12,405.12,410.48,410.48,410.48,410.48,414.51,414.51,414.51,414.51,419.87,419.87,419.87,419.87,423.89,423.89,423.89,423.89,429.26,429.26,429.26,429.26,433.28,433.28,433.28,438.65,438.65,438.65,442.67,442.67,442.67,442.67,448.04,448.04,448.04,448.04,448.04,452.06,452.06,452.06,452.06,452.06,454.74,454.74,457.42,457.42,457.42,457.42,457.42,461.45,464.13,464.13,464.13,466.81,477.54,482.91,482.91,505.71,505.71,513.75,513.75,524.48,527.16,532.53,532.53,540.58,540.58,543.26,543.26,547.28,547.28,547.28,547.28,543.26,543.26,543.26,540.58,540.58,540.58,540.58,540.58,532.53,527.16,527.16,524.48,517.78,517.78,517.78,505.71,505.71,486.93,482.91,482.91,477.54,477.54,477.54,477.54,477.54,477.54,477.54,477.54,477.54,477.54,477.54,477.54,477.54,477.54,477.54,477.54,477.54,477.54,477.54,477.54,477.54,477.54,477.54,482.91,482.91,486.93,505.71,505.71,505.71,505.71,513.75,513.75,513.75,517.78,524.48,524.48,524.48,524.48,524.48,524.48,524.48,524.48,524.48,527.16,527.16,527.16,532.53,532.53,532.53,532.53,527.16,527.16,527.16,527.16,527.16,524.48,524.48,524.48,524.48,524.48,524.48,524.48,524.48,524.48,524.48,524.48,524.48,524.48,524.48,524.48,524.48,524.48,524.48,524.48,524.48,524.48,527.16,527.16,527.16,527.16,527.16,527.16,527.16,524.48,524.48,524.48,524.48,524.48,517.78,513.75,513.75,513.75,505.71,505.71,505.71,505.71,505.71,505.71,505.71,505.71,505.71,505.71,505.71,505.71,505.71,505.71,505.71,505.71,505.71,505.71,505.71,505.71,513.75,513.75,513.75,513.75,513.75,513.75,513.75,517.78,517.78,517.78,517.78,524.48,524.48,524.48,524.48,524.48,524.48,527.16,527.16,527.16,527.16,532.53,532.53,532.53,532.53,540.58,540.58,540.58,540.58,540.58,540.58,540.58,540.58,540.58,540.58,540.58,540.58,540.58,540.58,540.58,540.58,532.53,532.53,532.53,527.16,527.16,524.48,524.48,524.48,524.48,524.48,517.78,517.78,517.78,517.78,517.78,517.78,517.78,524.48,524.48,524.48,517.78,517.78,517.78,517.78,517.78,513.75,513.75,513.75,505.71,505.71,524.48,532.53,532.53,540.58,549.96,549.96,552.65,552.65,556.67,555.33,536.55,536.55,536.55,536.55,524.48,524.48,524.48,524.48,524.48,524.48,524.48,524.48,524.48,524.48,524.48,536.55,536.55,536.55,536.55,536.55,536.55,536.55,536.55,536.55,536.55,536.55,536.55
299.16,299.16,299.16,299.16,299.16,299.16,299.16,299.16,299.16,299.16,300.51,300.51,300.51,300.51,301.85,301.85,301.85,301.85,303.19,303.19,303.19,303.19,304.53,304.53,305.87,305.87,305.87,305.87,305.87,305.87,305.87,307.21,307.21,307.21,307.21,307.21,307.21,308.55,308.55,308.55,308.55,308.55,309.89,309.89,309.89,309.89,316.60,316.60,316.60,316.60,319.28,319.28,319.28,321.96,321.96,328.67,328.67,328.67,328.67,332.69,335.38,338.06,338.06,338.06,338.06,342.08,342.08,344.76,344.76,344.76,351.47,351.47,351.47,351.47,354.15,354.15,356.84,356.84,360.86,360.86,360.86,360.86,363.54,370.25,370.25,370.25,372.93,372.93,372.93,372.93,379.64,379.64,379.64,379.64,379.64,379.64,382.32,385.00,385.00,385.00,391.71,391.71,391.71,391.71,391.71,391.71,394.39,394.39,394.39,401.09,401.09,401.09,405.12,405.12,405.12,410.48,410.48,410.48,410.48,410.48,414.51,414.51,414.51,414.51,419.87,419.87,419.87,419.87,423.89,423.89,423.89,429.26,429.26,429.26,429.26,433.28,433.28,433.28,438.65,438.65,438.65,442.67,442.67,442.67,442.67,448.04,448.04,448.04,448.04,448.04,452.06,452.06,452.06,452.06,452.06,454.74,454.74,457.42,457.42,457.42,457.42,457.42,461.45,464.13,464.13,464.13,466.81,477.54,482.91,482.91,505.71,505.71,513.75,513.75,524.48,527.16,540.58,543.26,543.26,547.28,547.28,547.28,548.62,548.62,548.62,548.62,548.62,548.62,547.28,547.28,547.28,547.28,540.58,540.58,540.58,532.53,532.53,527.16,524.48,524.48,513.75,505.71,505.71,486.93,482.91,482.91,477.54,477.54,477.54,477.54,477.54,477.54,477.54,477.54,477.54,477.54,477.54,477.54,477.54,477.54,477.54,477.54,477.54,477.54,477.54,477.54,477.54,477.54,477.54,482.91,482.91,486.93,505.71,505.71,505.71,505.71,513.75,513.75,513.75,517.78,524.48,524.48,524.48,524.48,524.48,524.48,524.48,524.48,524.48,527.16,527.16,527.16,532.53,532.53,532.53,532.53,527.16,527.16,527.16,527.16,527.16,524.48,524.48,527.16,527.16,524.48,524.48,524.48,524.48,524.48,524.48,524.48,524.48,524.48,524.48,524.48,524.48,527.16,527.16,527.16,527.16,527.16,532.53,532.53,532.53,532.53,532.53,532.53,527.16,527.16,527.16,524.48,524.48,524.48,517.78,517.78,517.78,513.75,505.71,505.71,505.71,505.71,505.71,505.71,505.71,505.71,505.71,505.71,505.71,505.71,505.71,505.71,505.71,505.71,505.71,505.71,505.71,505.71,513.75,513.75,513.75,513.75,513.75,513.75,513.75,517.78,517.78,517.78,517.78,524.48,524.48,524.48,524.48,524.48,524.48,527.16,527.16,527.16,527.16,532.53,532.53,532.53,532.53,532.53,540.58,540.58,540.58,540.58,540.58,540.58,540.58,540.58,540.58,540.58,540.58,540.58,540.58,540.58,540.58,532.53,532.53,532.53,527.16,527.16,524.48,524.48,524.48,524.48,524.48,517.78,517.78,517.78,517.78,517.78,517.78,517.78,524.48,524.48,524.48,517.78,517.78,517.78,517.78,517.78,513.75,513.75,513.75,505.71,505.71,524.48,532.53,532.53,543.26,551.31,551.31,552.65,552.65,556.67,555.33,536.55,536.55,536.55,536.55,524.48,524.48,524.48,524.48,524.48,524.48,524.48,524.48,524.48,524.48,524.48,524.48,536.55,536.55,536.55,536.55,536.55,536.55,536.55,536.55,536.55,536.55,536.55
299.16,299.16,299.16,299.16,299.16,299.16,299.16,299.16,299.16,299.16,300.51,300.51,300.51,300.51,301.85,301.85,301.85,301.85,303.19,303.19,303.19,303.19,304.53,304.53,305.87,305.87,305.87,305.87,305.87,305.87,305.87,307.21,307.21,307.21,307.21,307.21,307.21,308.55,308.55,308.55,308.55,308.55,309.89,309.89,309.89,309.89,316.60,316.60,316.60,316.60,319.28,319.28,319.28,321.96,321.96,328.67,328.67,328.67,328.67,332.69,335.38,338.06,338.06,338.06,338.06,342.08,342.08,344.76,344.76,344.76,351.47,351.47,351.47,351.47,354.15,354.15,356.84,356.84,360.86,360.86,360.86,360.86,363.54,370.25,370.25,370.25,372.93,372.93,372.93,372.93,379.64,379.64,379.64,379.64,379.64,379.64,382.32,385.00,385.00,385.00,391.71,391.71,391.71,391.71,391.71,394.39,394.39,394.39,401.09,401.09,401.09,401.09,405.12,405.12,405.12,405.12,410.48,410.48,410.48,410.48,414.51,414.51,414.51,414.51,419.87,419.87,419.87,419.87,423.89,423.89,423.89,429.26,429.26,429.26,429.26,433.28,433.28,433.28,438.65,438.65,438.65,442.67,442.67,442.67,442.67,448.04,448.04,448.04,448.04,448.04,452.06,452.06,452.06,452.06,452.06,454.74,454.74,457.42,457.42,457.42,457.42,457.42,461.45,464.13,464.13,464.13,466.81,477.54,482.91,482.91,505.71,505.71,513.75,513.75,524.48,532.53,540.58,547.28,547.28,547.28,548.62,549.96,549.96,549.96,549.96,549.96,549.96,549.96,547.28,548.62,547.28,547.28,547.28,547.28,547.28,540.58,532.53,532.53,524.48,524.48,513.75,513.75,504.36,486.93,482.91,482.91,477.54,477.54,477.54,477.54,477.54,477.54,477.54,477.54,477.54,477.54,477.54,477.54,477.54,477.54,477.54,477.54,477.54,477.54,477.54,477.54,477.54,477.54,482.91,482.91,482.91,486.93,505.71,505.71,505.71,513.75,513.75,513.75,517.78,524.48,524.48,524.48,524.48,527.16,527.16,527.16,527.16,532.53,532.53,532.53,532.53,532.53,540.58,540.58,540.58,540.58,532.53,532.53,532.53,532.53,532.53,532.53,527.16,527.16,527.16,524.48,524.48,524.48,524.48,524.48,524.48,524.48,524.48,524.48,524.48,524.48,524.48,527.16,527.16,527.16,527.16,527.16,532.53,532.53,532.53,532.53,532.53,532.53,527.16,527.16,527.16,524.48,524.48,524.48,517.78,517.78,517.78,513.75,505.71,505.71,505.71,505.71,505.71,505.71,505.71,505.71,505.71,505.71,505.71,505.71,505.71,505.71,505.71,505.71,505.71,505.71,513.75,513.75,513.75,513.75,513.75,513.75,513.75,517.78,517.78,517.78,517.78,517.78,524.48,524.48,524.48,524.48,524.48,524.48,524.48,527.16,527.16,527.16,527.16,527.16,532.53,532.53,532.53,532.53,532.53,532.53,540.58,540.58,540.58,540.58,540.58,540.58,540.58,540.58,540.58,540.58,540.58,540.58,540.58,532.53,532.53,532.53,527.16,527.16,527.16,524.48,524.48,524.48,524.48,524.48,524.48,524.48,524.48,524.48,524.48,524.48,524.48,524.48,524.48,517.78,517.78,517.78,517.78,517.78,513.75,513.75,513.75,505.71,505.71,524.48,532.53,532.53,543.26,551.31,551.31,552.65,552.65,556.67,555.33,536.55,536.55,536.55,536.55,524.48,524.48,524.48,524.48,524.48,524.48,524.48,524.48,524.48,524.48,524.48,524.48,536.55,536.55,536.55,536.55,536.55,536.55,536.55,536.55,536.55,536.55,536.55
299.16,299.16,299.16,299.16,299.16,299.16,299.16,299.16,299.16,299.16,300.51,300.51,300.51,300.51,301.85,301.85,301.85,301.85,303.19,303.19,303.19,303.19,304.53,304.53,304.53,305.87,305.87,305.87,305.87,305.87,305.87,307.21,307.21,307.21,307.21,307.21,307.21,308.55,308.55,308.55,308.55,308.55,309.89,309.89,309.89,309.89,316.60,316.60,316.60,316.60,316.60,319.28,319.28,321.96,321.96,328.67,328.67,328.67,328.67,332.69,335.38,338.06,338.06,338.06,338.06,342.08,342.08,342.08,344.76,344.76,344.76,351.47,351.47,351.47,354.15,354.15,356.84,356.84,356.84,360.86,360.86,360.86,363.54,370.25,370.25,370.25,370.25,372.93,372.93,372.93,379.64,379.64,379.64,379.64,382.32,382.32,382.32,385.00,391.71,391.71,391.71,391.71,391.71,391.71,391.71,394.39,394.39,394.39,401.09,401.09,401.09,401.09,405.12,405.12,405.12,405.12,410.48,410.48,410.48,410.48,414.51,414.51,414.51,414.51,419.87,419.87,419.87,419.87,419.87,423.89,423.89,423.89,423.89,429.26,429.26,433.28,433.28,433.28,438.65,438.65,438.65,438.65,442.67,442.67,442.67,448.04,448.04,448.04,448.04,448.04,452.06,452.06,452.06,454.74,454.74,454.74,457.42,457.42,457.42,457.42,461.45,461.45,461.45,464.13,464.13,464.13,466.81,477.54,482.91,482.91,505.71,513.75,517.78,517.78,524.48,532.53,540.58,547.28,547.28,547.28,548.62,549.96,549.96,549.96,549.96,549.96,549.96,549.96,549.96,548.62,547.28,547.28,547.28,547.28,547.28,540.58,532.53,532.53,524.48,524.48,513.75,513.75,508.39,486.93,482.91,482.91,477.54,477.54,477.54,477.54,477.54,477.54,477.54,477.54,477.54,477.54,477.54,477.54,477.54,477.54,477.54,477.54,477.54,477.54,477.54,477.54,477.54,477.54,482.91,486.93,486.93,505.71,505.71,505.71,513.75,513.75,517.78,517.78,524.48,524.48,527.16,527.16,527.16,532.53,532.53,532.53,540.58,540.58,540.58,540.58,540.58,540.58,540.58,540.58,540.58,540.58,540.58,540.58,540.58,540.58,540.58,540.58,532.53,532.53,532.53,527.16,527.16,527.16,527.16,527.16,527.16,527.16,527.16,527.16,527.16,527.16,527.16,532.53,532.53,532.53,532.53,532.53,532.53,532.53,532.53,532.53,532.53,532.53,532.53,527.16,527.16,524.48,524.48,524.48,517.78,513.75,513.75,513.75,505.71,505.71,505.71,505.71,505.71,505.71,505.71,505.71,505.71,505.71,505.71,505.71,505.71,505.71,505.71,505.71,505.71,505.71,513.75,513.75,513.75,513.75,513.75,513.75,513.75,517.78,517.78,517.78,517.78,517.78,524.48,524.48,524.48,524.48,524.48,524.48,524.48,527.16,527.16,527.16,527.16,527.16,532.53,532.53,532.53,532.53,532.53,532.53,540.58,540.58,540.58,540.58,540.58,540.58,540.58,540.58,540.58,540.58,540.58,540.58,540.58,540.58,540.58,532.53,532.53,527.16,527.16,527.16,524.48,524.48,524.48,524.48,524.48,524.48,524.48,524.48,524.48,524.48,524.48,524.48,524.48,524.48,524.48,517.78,517.78,517.78,513.75,513.75,513.75,505.71,505.71,524.48,532.53,532.53,540.58,551.31,551.31,552.65,552.65,556.67,555.33,536.55,536.55,536.55,536.55,524.48,524.48,524.48,524.48,524.48,524.48,524.48,524.48,524.48,524.48,524.48,524.48,524.48,524.48,524.48,524.48,536.55,536.55,536.55,536.55,536.55,536.55,536.55
299.16,299.16,299.16,299.16,299.16,299.16,299.16,299.16,299.16,299.16,300.51,300.51,300.51,300.51,301.85,301.85,301.85,301.85,303.19,303.19,303.19,303.19,304.53,304.53,304.53,305.87,305.87,305.87,305.87,305.87,305.87,307.21,307.21,307.21,307.21,307.21,307.21,308.55,308.55,308.55,308.55,308.55,309.89,309.89,309.89,309.89,316.60,316.60,316.60,316.60,316.60,319.28,319.28,321.96,321.96,328.67,328.67,328.67,328.67,332.69,335.38,338.06,338.06,338.06,338.06,342.08,342.08,342.08,344.76,344.76,344.76,351.47,351.47,351.47,354.15,354.15,356.84,356.84,356.84,360.86,360.86,360.86,363.54,370.25,370.25,370.25,370.25,372.93,372.93,372.93,379.64,379.64,379.64,379.64,382.32,382.32,382.32,385.00,391.71,391.71,391.71,391.71,391.71,391.71,391.71,394.39,394.39,394.39,401.09,401.09,401.09,401.09,401.09,405.12,405.12,405.12,410.48,410.48,410.48,410.48,414.51,414.51,414.51,414.51,419.87,419.87,419.87,419.87,419.87,423.89,423.89,423.89,423.89,429.26,429.26,433.28,433.28,433.28,438.65,438.65,438.65,438.65,442.67,442.67,442.67,448.04,448.04,448.04,448.04,448.04,452.06,452.06,452.06,454.74,454.74,454.74,457.42,457.42,457.42,457.42,461.45,461.45,461.45,464.13,464.13,464.13,466.81,477.54,482.91,482.91,505.71,513.75,524.48,527.16,527.16,540.58,543.26,547.28,547.28,548.62,549.96,549.96,549.96,551.31,551.31,551.31,551.31,551.31,552.65,551.31,549.96,549.96,548.62,548.62,548.62,547.28,540.58,540.58,540.58,524.48,524.48,517.78,517.78,505.71,482.91,482.91,477.54,477.54,477.54,477.54,477.54,477.54,477.54,477.54,477.54,477.54,477.54,477.54,477.54,477.54,477.54,477.54,477.54,477.54,477.54,477.54,477.54,477.54,482.91,486.93,486.93,505.71,505.71,505.71,513.75,513.75,517.78,517.78,524.48,524.48,527.16,527.16,527.16,532.53,532.53,532.53,540.58,540.58,540.58,543.26,543.26,543.26,543.26,543.26,543.26,543.26,543.26,543.26,540.58,540.58,540.58,540.58,540.58,540.58,540.58,532.53,532.53,532.53,532.53,532.53,532.53,532.53,532.53,532.53,532.53,532.53,532.53,532.53,532.53,532.53,532.53,532.53,540.58,540.58,540.58,532.53,532.53,532.53,532.53,527.16,527.16,524.48,524.48,524.48,517.78,513.75,513.75,513.75,505.71,505.71,505.71,505.71,505.71,505.71,505.71,505.71,505.71,505.71,505.71,505.71,505.71,505.71,505.71,505.71,505.71,505.71,513.75,513.75,513.75,513.75,513.75,513.75,513.75,517.78,517.78,517.78,517.78,517.78,524.48,524.48,524.48,524.48,524.48,524.48,524.48,527.16,527.16,527.16,527.16,527.16,532.53,532.53,532.53,532.53,532.53,532.53,532.53,540.58,540.58,540.58,540.58,540.58,540.58,540.58,540.58,540.58,540.58,540.58,540.58,540.58,540.58,532.53,532.53,527.16,527.16,527.16,524.48,524.48,524.48,524.48,524.48,524.48,524.48,524.48,524.48,524.48,524.48,524.48,524.48,524.48,524.48,517.78,517.78,517.78,513.75,513.75,513.75,505.71,505.71,524.48,532.53,532.53,540.58,551.31,551.31,552.65,562.04,562.04,536.55,536.55,524.48,524.48,524.48,524.48,524.48,524.48,524.48,524.48,524.48,524.48,524.48,524.48,524.48,524.48,524.48,524.48,524.48,524.48,524.48,536.55,536.55,536.55,536.55,536.55,536.55,536.55
299.16,299.16,299.16,299.16,299.16,299.16,299.16,299.16,299.16,299.16,300.51,300.51,300.51,300.51,301.85,301.85,301.85,301.85,303.19,303.19,303.19,303.19,304.53,304.53,304.53,305.87,305.87,305.87,305.87,305.87,305.87,307.21,307.21,307.21,307.21,307.21,307.21,308.55,308.55,308.55,308.55,308.55,309.89,309.89,309.89,309.89,316.60,316.60,316.60,316.60,316.60,319.28,319.28,321.96,321.96,328.67,328.67,328.67,328.67,332.69,335.38,338.06,338.06,338.06,338.06,342.08,342.08,342.08,344.76,344.76,344.76,351.47,351.47,351.47,354.15,354.15,356.84,356.84,360.86,360.86,360.86,360.86,363.54,363.54,363.54,370.25,370.25,372.93,372.93,372.93,372.93,379.64,379.64,379.64,382.32,382.32,382.32,385.00,391.71,391.71,391.71,391.71,391.71,391.71,391.71,394.39,394.39,394.39,401.09,401.09,401.09,401.09,401.09,405.12,405.12,405.12,410.48,410.48,410.48,410.48,414.51,414.51,414.51,414.51,419.87,419.87,419.87,419.87,419.87,423.89,423.89,423.89,423.89,429.26,429.26,433.28,433.28,433.28,438.65,438.65,438.65,438.65,442.67,442.67,442.67,448.04,448.04,448.04,448.04,448.04,452.06,452.06,452.06,454.74,454.74,454.74,457.42,457.42,457.42,457.42,461.45,461.45,461.45,464.13,464.13,464.13,466.81,477.54,482.91,482.91,505.71,513.75,524.48,527.16,527.16,540.58,547.28,548.62,548.62,549.96,551.31,551.31,551.31,551.31,552.65,552.65,552.65,552.65,552.65,551.31,551.31,551.31,549.96,549.96,548.62,548.62,547.28,547.28,540.58,524.48,524.48,517.78,517.78,513.75,505.71,505.71,482.91,482.91,482.91,477.54,477.54,477.54,477.54,477.54,477.54,477.54,477.54,477.54,477.54,477.54,477.54,477.54,477.54,477.54,477.54,477.54,477.54,482.91,486.93,505.71,505.71,505.71,505.71,505.71,513.75,517.78,524.48,524.48,524.48,527.16,532.53,532.53,532.53,540.58,540.58,540.58,540.58,540.58,540.58,543.26,543.26,543.26,543.26,543.26,543.26,543.26,543.26,543.26,540.58,540.58,540.58,540.58,540.58,540.58,540.58,532.53,532.53,532.53,532.53,532.53,532.53,532.53,532.53,532.53,532.53,532.53,532.53,532.53,532.53,532.53,532.53,532.53,532.53,532.53,532.53,532.53,532.53,532.53,532.53,527.16,527.16,524.48,524.48,524.48,517.78,513.75,513.75,513.75,505.71,505.71,505.71,505.71,505.71,505.71,505.71,505.71,505.71,505.71,505.71,505.71,505.71,505.71,505.71,505.71,505.71,505.71,513.75,513.75,513.75,513.75,513.75,513.75,513.75,517.78,517.78,517.78,517.78,517.78,524.48,524.48,524.48,524.48,524.48,524.48,524.48,524.48,527.16,527.16,527.16,527.16,527.16,527.16,527.16,532.53,532.53,532.53,532.53,540.58,540.58,540.58,540.58,540.58,540.58,540.58,540.58,540.58,540.58,540.58,540.58,540.58,540.58,540.58,532.53,532.53,532.53,532.53,527.16,527.16,527.16,524.48,524.48,524.48,524.48,524.48,524.48,524.48,524.48,524.48,524.48,524.48,524.48,517.78,517.78,517.78,513.75,513.75,513.75,505.71,505.71,517.78,527.16,527.16,540.58,551.31,551.31,552.65,552.65,562.04,536.55,536.55,524.48,524.48,524.48,524.48,524.48,524.48,524.48,524.48,524.48,524.48,524.48,524.48,524.48,524.48,524.48,524.48,524.48,524.48,524.48,524.48,524.48,524.48,536.55,536.55,536.55,536.55
299.16,299.16,299.16,299.16,299.16,299.16,299.16,299.16,299.16,299.16,300.51,300.51,300.51,300.51,301.85,301.85,301.85,301.85,303.19,303.19,303.19,303.19,304.53,304.53,304.53,305.87,305.87,305.87,305.87,305.87,305.87,307.21,307.21,307.21,307.21,307.21,307.21,308.55,308.55,308.55,308.55,308.55,309.89,309.89,309.89,309.89,316.60,316.60,316.60,316.60,316.60,319.28,319.28,321.96,321.96,328.67,328.67,328.67,328.67,332.69,335.38,338.06,338.06,338.06,338.06,342.08,342.08,342.08,344.76,344.76,344.76,351.47,351.47,351.47,354.15,354.15,356.84,356.84,360.86,360.86,360.86,360.86,363.54,363.54,363.54,370.25,370.25,372.93,372.93,372.93,372.93,379.64,379.64,379.64,382.32,382.32,382.32,385.00,391.71,391.71,391.71,391.71,391.71,391.71,391.71,394.39,394.39,394.39,401.09,401.09,401.09,401.09,401.09,405.12,405.12,405.12,405.12,405.12,410.48,410.48,414.51,414.51,414.51,414.51,419.87,419.87,419.87,419.87,419.87,423.89,423.89,423.89,423.89,429.26,429.26,433.28,433.28,433.28,438.65,438.65,438.65,438.65,442.67,442.67,442.67,442.67,448.04,448.04,448.04,448.04,452.06,452.06,452.06,454.74,454.74,454.74,457.42,457.42,457.42,457.42,461.45,461.45,461.45,464.13,464.13,464.13,466.81,477.54,482.91,482.91,505.71,513.75,524.48,527.16,527.16,540.58,547.28,548.62,548.62,549.96,551.31,551.31,551.31,551.31,552.65,552.65,552.65,552.65,552.65,551.31,551.31,551.31,549.96,549.96,548.62,548.62,547.28,547.28,543.26,532.53,532.53,524.48,524.48,513.75,505.71,505.71,505.71,486.93,482.91,482.91,482.91,482.91,482.91,482.91,482.91,482.91,482.91,482.91,482.91,482.91,482.91,482.91,482.91,482.91,482.91,482.91,482.91,486.93,486.93,505.71,505.71,505.71,513.75,517.78,517.78,524.48,524.48,524.48,524.48,532.53,532.53,532.53,540.58,540.58,540.58,540.58,543.26,543.26,543.26,547.28,547.28,547.28,547.28,547.28,547.28,547.28,543.26,543.26,543.26,543.26,543.26,540.58,540.58,540.58,540.58,540.58,540.58,540.58,540.58,540.58,540.58,540.58,540.58,540.58,540.58,540.58,540.58,540.58,540.58,540.58,540.58,540.58,532.53,532.53,532.53,532.53,532.53,532.53,527.16,527.16,527.16,524.48,524.48,524.48,517.78,513.75,513.75,505.71,505.71,505.71,505.71,505.71,505.71,505.71,505.71,505.71,505.71,505.71,505.71,505.71,505.71,505.71,505.71,505.71,505.71,505.71,513.75,513.75,513.75,513.75,513.75,513.75,513.75,517.78,517.78,517.78,517.78,517.78,524.48,524.48,524.48,524.48,524.48,524.48,524.48,524.48,527.16,527.16,527.16,527.16,527.16,527.16,527.16,532.53,532.53,532.53,532.53,540.58,540.58,540.58,540.58,540.58,540.58,540.58,540.58,540.58,540.58,540.58,540.58,540.58,540.58,540.58,540.58,540.58,540.58,532.53,532.53,532.53,532.53,527.16,527.16,527.16,527.16,527.16,524.48,524.48,524.48,524.48,524.48,524.48,524.48,524.48,517.78,517.78,513.75,513.75,513.75,505.71,505.71,517.78,524.48,524.48,540.58,551.31,551.31,552.65,552.65,570.08,536.55,536.55,524.48,524.48,524.48,524.48,524.48,524.48,524.48,524.48,524.48,524.48,524.48,524.48,524.48,524.48,524.48,524.48,524.48,524.48,524.48,524.48,524.48,524.48,536.55,536.55,536.55,536.55
299.16,299.16,299.16,299.16,299.16,299.16,299.16,299.16,299.16,299.16,300.51,300.51,301.85,301.85,301.85,301.85,301.85,301.85,303.19,303.19,303.19,303.19,304.53,304.53,304.53,305.87,305.87,305.87,305.87,305.87,305.87,307.21,307.21,307.21,307.21,307.21,307.21,308.55,308.55,308.55,308.55,308.55,309.89,309.89,309.89,309.89,316.60,316.60,316.60,316.60,316.60,319.28,319.28,321.96,321.96,328.67,328.67,328.67,328.67,332.69,335.38,335.38,335.38,338.06,338.06,338.06,338.06,342.08,344.76,344.76,344.76,351.47,351.47,351.47,351.47,354.15,356.84,356.84,360.86,360.86,360.86,360.86,363.54,363.54,363.54,370.25,370.25,372.93,372.93,372.93,372.93,379.64,379.64,379.64,382.32,382.32,382.32,385.00,391.71,391.71,391.71,391.71,391.71,391.71,391.71,394.39,394.39,394.39,394.39,401.09,401.09,401.09,401.09,405.12,405.12,405.12,405.12,405.12,410.48,410.48,414.51,414.51,414.51,414.51,419.87,419.87,419.87,419.87,419.87,423.89,423.89,423.89,423.89,429.26,429.26,433.28,433.28,433.28,438.65,438.65,438.65,438.65,442.67,442.67,442.67,442.67,448.04,448.04,448.04,448.04,448.04,448.04,452.06,454.74,454.74,454.74,457.42,457.42,457.42,457.42,461.45,461.45,461.45,464.13,464.13,464.13,466.81,466.81,477.54,477.54,505.71,513.75,524.48,524.48,532.53,540.58,547.28,548.62,548.62,549.96,551.31,552.65,552.65,552.65,552.65,552.65,552.65,552.65,552.65,552.65,552.65,552.65,551.31,551.31,549.96,549.96,548.62,548.62,543.26,532.53,532.53,524.48,524.48,513.75,505.71,505.71,505.71,486.93,482.91,482.91,482.91,482.91,482.91,482.91,482.91,482.91,482.91,482.91,482.91,482.91,482.91,482.91,482.91,482.91,482.91,482.91,482.91,486.93,486.93,505.71,505.71,505.71,513.75,513.75,517.78,524.48,524.48,524.48,527.16,532.53,540.58,540.58,540.58,540.58,543.26,543.26,547.28,547.28,547.28,547.28,547.28,547.28,547.28,547.28,547.28,547.28,547.28,547.28,547.28,543.26,543.26,543.26,543.26,540.58,540.58,540.58,540.58,540.58,540.58,540.58,540.58,540.58,540.58,540.58,540.58,540.58,540.58,540.58,540.58,540.58,540.58,532.53,532.53,532.53,532.53,532.53,532.53,532.53,527.16,524.48,524.48,524.48,524.48,524.48,517.78,513.75,513.75,505.71,505.71,505.71,505.71,505.71,505.71,505.71,505.71,505.71,505.71,505.71,505.71,505.71,505.71,505.71,505.71,505.71,505.71,505.71,505.71,505.71,513.75,513.75,513.75,513.75,513.75,517.78,517.78,517.78,517.78,517.78,524.48,524.48,524.48,524.48,524.48,524.48,524.48,524.48,524.48,524.48,524.48,527.16,527.16,527.16,527.16,527.16,527.16,532.53,532.53,532.53,532.53,540.58,540.58,540.58,540.58,540.58,540.58,540.58,540.58,540.58,540.58,540.58,540.58,540.58,540.58,540.58,540.58,540.58,540.58,540.58,540.58,532.53,532.53,532.53,532.53,532.53,527.16,527.16,524.48,524.48,524.48,524.48,524.48,524.48,517.78,517.78,513.75,513.75,513.75,505.71,505.71,517.78,524.48,524.48,540.58,551.31,551.31,552.65,570.08,570.08,524.48,524.48,524.48,524.48,524.48,524.48,524.48,524.48,524.48,524.48,524.48,524.48,524.48,524.48,524.48,524.48,524.48,524.48,524.48,524.48,524.48,524.48,524.48,524.48,524.48,524.48,524.48,524.48
299.16,299.16,299.16,299.16,299.16,299.16,299.16,299.16,299.16,299.16,300.51,300.51,301.85,301.85,301.85,301.85,301.85,301.85,303.19,303.19,303.19,303.19,304.53,304.53,304.53,305.87,305.87,305.87,305.87,305.87,305.87,307.21,307.21,307.21,307.21,307.21,307.21,308.55,308.55,308.55,308.55,309.89,309.89,309.89,309.89,309.89,316.60,316.60,316.60,316.60,316.60,319.28,319.28,321.96,321.96,328.67,328.67,328.67,328.67,332.69,335.38,335.38,335.38,338.06,338.06,338.06,338.06,342.08,342.08,342.08,344.76,351.47,351.47,351.47,351.47,354.15,356.84,356.84,356.84,360.86,360.86,360.86,360.86,363.54,363.54,370.25,370.25,370.25,370.25,372.93,372.93,379.64,379.64,379.64,379.64,379.64,382.32,385.00,391.71,391.71,391.71,391.71,391.71,391.71,391.71,394.39,394.39,394.39,394.39,401.09,401.09,401.09,401.09,405.12,405.12,405.12,405.12,405.12,410.48,410.48,414.51,414.51,414.51,414.51,419.87,419.87,419.87,419.87,419.87,423.89,423.89,423.89,423.89,429.26,429.26,433.28,433.28,433.28,438.65,438.65,438.65,438.65,442.67,442.67,442.67,442.67,448.04,448.04,448.04,448.04,448.04,448.04,452.06,454.74,454.74,454.74,457.42,457.42,457.42,457.42,461.45,461.45,461.45,464.13,464.13,464.13,466.81,466.81,477.54,477.54,505.71,513.75,524.48,524.48,532.53,543.26,548.62,549.96,549.96,549.96,551.31,552.65,552.65,552.65,552.65,552.65,552.65,552.65,552.65,552.65,552.65,552.65,552.65,551.31,551.31,549.96,548.62,548.62,547.28,540.58,540.58,527.16,524.48,524.48,524.48,505.71,505.71,505.71,505.71,505.71,505.71,486.93,486.93,486.93,486.93,486.93,486.93,486.93,486.93,486.93,486.93,486.93,486.93,486.93,486.93,486.93,486.93,505.71,505.71,505.71,505.71,505.71,513.75,513.75,517.78,524.48,524.48,524.48,527.16,532.53,540.58,540.58,540.58,540.58,543.26,543.26,547.28,547.28,547.28,547.28,547.28,547.28,547.28,547.28,547.28,547.28,547.28,547.28,547.28,543.26,543.26,543.26,543.26,540.58,540.58,540.58,540.58,540.58,540.58,540.58,540.58,540.58,540.58,540.58,540.58,540.58,540.58,540.58,540.58,540.58,540.58,532.53,532.53,532.53,532.53,532.53,532.53,532.53,527.16,524.48,524.48,524.48,524.48,524.48,517.78,513.75,513.75,505.71,505.71,505.71,505.71,505.71,505.71,505.71,505.71,505.71,505.71,505.71,505.71,505.71,505.71,505.71,505.71,505.71,505.71,505.71,505.71,505.71,513.75,513.75,513.75,513.75,513.75,517.78,517.78,517.78,517.78,517.78,524.48,524.48,524.48,524.48,524.48,524.48,524.48,524.48,524.48,524.48,524.48,527.16,527.16,527.16,527.16,527.16,527.16,527.16,532.53,532.53,532.53,540.58,540.58,540.58,540.58,540.58,540.58,540.58,540.58,540.58,540.58,540.58,540.58,540.58,540.58,540.58,540.58,540.58,540.58,540.58,540.58,532.53,532.53,532.53,532.53,532.53,527.16,527.16,524.48,524.48,524.48,524.48,524.48,524.48,517.78,517.78,513.75,513.75,513.75,505.71,505.71,517.78,524.48,524.48,540.58,551.31,551.31,552.65,570.08,570.08,524.48,524.48,524.48,524.48,524.48,524.48,524.48,524.48,524.48,524.48,524.48,524.48,524.48,524.48,524.48,524.48,524.48,524.48,524.48,524.48,524.48,524.48,524.48,524.48,524.48,524.48,524.48,524.48
299.16,299.16,299.16,299.16,299.16,299.16,299.16,299.16,300.51,300.51,300.51,300.51,301.85,301.85,301.85,301.85,301.85,301.85,303.19,303.19,303.19,303.19,304.53,304.53,304.53,305.87,305.87,305.87,305.87,305.87,305.87,307.21,307.21,307.21,307.21,307.21,307.21,308.55,308.55,308.55,308.55,309.89,309.89,309.89,309.89,309.89,309.89,316.60,316.60,316.60,316.60,319.28,319.28,321.96,321.96,328.67,328.67,328.67,328.67,332.69,335.38,335.38,335.38,338.06,338.06,338.06,338.06,342.08,342.08,342.08,344.76,351.47,351.47,351.47,351.47,354.15,356.84,356.84,356.84,360.86,360.86,360.86,360.86,363.54,363.54,370.25,370.25,370.25,370.25,372.93,372.93,379.64,379.64,379.64,379.64,379.64,382.32,385.00,391.71,391.71,391.71,391.71,391.71,391.71,391.71,391.71,391.71,394.39,394.39,401.09,401.09,401.09,401.09,401.09,405.12,405.12,410.48,410.48,410.48,410.48,414.51,414.51,414.51,414.51,419.87,419.87,419.87,419.87,419.87,423.89,423.89,423.89,423.89,429.26,429.26,429.26,429.26,433.28,433.28,433.28,438.65,438.65,438.65,438.65,442.67,442.67,448.04,448.04,448.04,448.04,448.04,448.04,452.06,454.74,454.74,454.74,457.42,457.42,457.42,457.42,461.45,461.45,461.45,464.13,464.13,464.13,466.81,466.81,477.54,477.54,505.71,513.75,524.48,524.48,532.53,543.26,548.62,549.96,549.96,549.96,551.31,552.65,552.65,552.65,552.65,552.65,552.65,556.67,556.67,552.65,552.65,552.65,552.65,551.31,551.31,551.31,549.96,549.96,547.28,543.26,543.26,540.58,527.16,527.16,524.48,524.48,516.44,513.75,505.71,505.71,505.71,505.71,505.71,505.71,505.71,505.71,505.71,505.71,505.71,505.71,505.71,505.71,505.71,505.71,505.71,505.71,505.71,505.71,505.71,505.71,505.71,513.75,517.78,524.48,524.48,524.48,524.48,524.48,527.16,532.53,540.58,540.58,540.58,543.26,547.28,547.28,547.28,547.28,547.28,547.28,547.28,547.28,547.28,547.28,547.28,547.28,547.28,547.28,547.28,547.28,547.28,547.28,543.26,543.26,543.26,543.26,540.58,540.58,540.58,540.58,540.58,540.58,540.58,540.58,540.58,540.58,540.58,540.58,540.58,540.58,540.58,532.53,532.53,532.53,532.53,532.53,527.16,527.16,527.16,524.48,524.48,524.48,524.48,524.48,517.78,513.75,513.75,505.71,505.71,505.71,505.71,505.71,505.71,505.71,505.71,505.71,505.71,505.71,505.71,505.71,505.71,505.71,505.71,505.71,505.71,505.71,505.71,505.71,513.75,513.75,513.75,513.75,513.75,517.78,517.78,517.78,517.78,517.78,524.48,524.48,524.48,524.48,524.48,524.48,524.48,524.48,524.48,524.48,524.48,527.16,527.16,527.16,527.16,527.16,527.16,527.16,532.53,532.53,532.53,540.58,540.58,540.58,540.58,540.58,540.58,540.58,540.58,540.58,540.58,540.58,540.58,540.58,540.58,540.58,540.58,540.58,540.58,540.58,540.58,540.58,540.58,540.58,532.53,532.53,532.53,532.53,527.16,527.16,524.48,524.48,524.48,524.48,517.78,517.78,513.75,513.75,513.75,513.75,513.75,517.78,524.48,524.48,540.58,551.31,551.31,556.67,536.55,536.55,524.48,524.48,524.48,524.48,524.48,524.48,524.48,524.48,524.48,524.48,524.48,524.48,524.48,524.48,524.48,524.48,524.48,524.48,524.48,524.48,524.48,524.48,524.48,524.48,524.48,524.48,524.48,524.48
299.16,299.16,299.16,299.16,299.16,299.16,299.16,299.16,300.51,300.51,300.51,300.51,301.85,301.85,301.85,301.85,301.85,301.85,303.19,303.19,303.19,303.19,304.53,304.53,304.53,305.87,305.87,305.87,305.87,305.87,305.87,305.87,305.87,307.21,307.21,307.21,307.21,308.55,308.55,308.55,308.55,308.55,309.89,309.89,309.89,309.89,309.89,316.60,316.60,316.60,316.60,319.28,319.28,321.96,321.96,328.67,328.67,328.67,328.67,332.69,335.38,335.38,335.38,338.06,338.06,338.06,338.06,342.08,342.08,342.08,344.76,344.76,351.47,351.47,351.47,354.15,354.15,356.84,356.84,360.86,360.86,360.86,360.86,363.54,363.54,370.25,370.25,370.25,370.25,372.93,372.93,372.93,379.64,379.64,379.64,379.64,382.32,385.00,391.71,391.71,391.71,391.71,391.71,391.71,391.71,391.71,391.71,394.39,394.39,401.09,401.09,401.09,401.09,401.09,405.12,405.12,410.48,410.48,410.48,410.48,414.51,414.51,414.51,414.51,419.87,419.87,419.87,419.87,419.87,423.89,423.89,423.89,423.89,429.26,429.26,429.26,429.26,433.28,433.28,433.28,438.65,438.65,438.65,438.65,442.67,442.67,442.67,442.67,448.04,448.04,448.04,448.04,452.06,454.74,454.74,457.42,457.42,457.42,457.42,461.45,461.45,461.45,461.45,464.13,464.13,464.13,464.13,466.81,477.54,477.54,486.93,513.75,524.48,524.48,532.53,543.26,548.62,549.96,549.96,551.31,551.31,552.65,552.65,552.65,552.65,552.65,552.65,556.67,556.67,552.65,552.65,552.65,552.65,551.31,551.31,551.31,549.96,549.96,547.28,543.26,543.26,540.58,527.16,527.16,524.48,524.48,524.48,513.75,505.71,505.71,505.71,505.71,505.71,505.71,505.71,505.71,505.71,505.71,505.71,505.71,505.71,505.71,505.71,505.71,505.71,505.71,505.71,505.71,513.75,513.75,513.75,517.78,517.78,524.48,524.48,524.48,527.16,527.16,532.53,540.58,540.58,540.58,543.26,547.28,547.28,547.28,547.28,547.28,547.28,547.28,548.62,548.62,547.28,547.28,547.28,547.28,547.28,547.28,547.28,547.28,547.28,547.28,547.28,543.26,543.26,543.26,543.26,543.26,543.26,540.58,540.58,540.58,540.58,540.58,540.58,540.58,540.58,540.58,540.58,532.53,532.53,532.53,532.53,532.53,532.53,527.16,527.16,527.16,527.16,524.48,524.48,524.48,524.48,524.48,517.78,513.75,513.75,505.71,505.71,505.71,505.71,505.71,505.71,505.71,505.71,505.71,505.71,505.71,505.71,505.71,505.71,505.71,505.71,505.71,505.71,505.71,505.71,505.71,505.71,513.75,513.75,513.75,513.75,517.78,517.78,517.78,517.78,517.78,524.48,524.48,524.48,524.48,524.48,524.48,524.48,524.48,524.48,524.48,524.48,524.48,524.48,524.48,527.16,527.16,527.16,527.16,532.53,532.53,532.53,540.58,540.58,540.58,540.58,540.58,543.26,543.26,543.26,543.26,543.26,540.58,540.58,540.58,540.58,540.58,540.58,540.58,540.58,543.26,540.58,540.58,540.58,540.58,540.58,540.58,540.58,532.53,527.16,527.16,524.48,524.48,524.48,524.48,517.78,517.78,513.75,513.75,513.75,513.75,513.75,513.75,513.75,513.75,532.53,556.67,556.67,555.33,536.55,536.55,524.48,524.48,524.48,524.48,524.48,524.48,524.48,524.48,524.48,524.48,524.48,524.48,524.48,524.48,524.48,524.48,524.48,524.48,524.48,524.48,524.48,524.48,524.48,524.48,524.48,524.48,524.48,524.48
299.16,299.16,299.16,299.16,299.16,299.16,299.16,299.16,300.51,300.51,300.51,300.51,301.85,301.85,301.85,301.85,303.19,303.19,303.19,303.19,303.19,303.19,304.53,304.53,304.53,305.87,305.87,305.87,305.87,305.87,305.87,305.87,305.87,307.21,307.21,307.21,307.21,308.55,308.55,308.55,308.55,308.55,309.89,309.89,309.89,309.89,309.89,316.60,316.60,316.60,316.60,319.28,319.28,321.96,321.96,328.67,328.67,328.67,328.67,332.69,335.38,335.38,335.38,338.06,338.06,338.06,338.06,342.08,342.08,342.08,344.76,344.76,344.76,351.47,351.47,354.15,354.15,356.84,356.84,360.86,360.86,360.86,360.86,363.54,363.54,363.54,370.25,370.25,370.25,372.93,372.93,372.93,372.93,379.64,379.64,379.64,382.32,385.00,391.71,391.71,391.71,391.71,391.71,391.71,391.71,391.71,391.71,391.71,394.39,401.09,401.09,401.09,401.09,401.09,405.12,405.12,410.48,410.48,410.48,410.48,414.51,414.51,414.51,414.51,419.87,419.87,419.87,419.87,419.87,423.89,423.89,423.89,423.89,429.26,429.26,429.26,429.26,433.28,433.28,433.28,438.65,438.65,438.65,438.65,442.67,442.67,442.67,442.67,448.04,448.04,448.04,448.04,452.06,454.74,454.74,457.42,457.42,457.42,457.42,461.45,461.45,461.45,461.45,464.13,464.13,464.13,464.13,466.81,477.54,477.54,486.93,513.75,524.48,524.48,532.53,540.58,548.62,548.62,548.62,549.96,551.31,552.65,552.65,552.65,552.65,552.65,552.65,552.65,552.65,552.65,552.65,552.65,552.65,551.31,551.31,551.31,549.96,549.96,548.62,547.28,547.28,540.58,532.53,532.53,527.16,524.48,524.48,524.48,517.78,517.78,513.75,513.75,513.75,513.75,505.71,505.71,505.71,505.71,505.71,505.71,505.71,505.71,505.71,505.71,505.71,505.71,505.71,505.71,513.75,513.75,513.75,517.78,517.78,524.48,524.48,524.48,527.16,527.16,532.53,540.58,540.58,540.58,543.26,547.28,547.28,547.28,547.28,547.28,547.28,547.28,548.62,548.62,547.28,547.28,547.28,547.28,547.28,547.28,547.28,547.28,547.28,547.28,547.28,547.28,547.28,543.26,543.26,543.26,543.26,540.58,540.58,540.58,540.58,540.58,540.58,540.58,540.58,540.58,540.58,532.53,532.53,532.53,532.53,532.53,532.53,527.16,527.16,527.16,527.16,524.48,524.48,524.48,524.48,524.48,517.78,513.75,513.75,505.71,505.71,505.71,505.71,505.71,505.71,505.71,505.71,505.71,505.71,505.71,505.71,505.71,505.71,505.71,505.71,505.71,505.71,505.71,505.71,505.71,505.71,513.75,513.75,513.75,513.75,517.78,517.78,517.78,517.78,517.78,524.48,524.48,524.48,524.48,524.48,524.48,524.48,524.48,524.48,524.48,524.48,524.48,524.48,524.48,524.48,527.16,527.16,527.16,532.53,532.53,532.53,540.58,540.58,540.58,540.58,540.58,543.26,543.26,543.26,543.26,543.26,540.58,540.58,540.58,540.58,540.58,540.58,540.58,540.58,543.26,540.58,540.58,540.58,540.58,540.58,540.58,540.58,532.53,527.16,527.16,524.48,524.48,524.48,524.48,517.78,517.78,517.78,513.75,513.75,513.75,513.75,513.75,513.75,513.75,532.53,536.55,536.55,536.55,536.55,536.55,524.48,524.48,524.48,524.48,524.48,524.48,524.48,524.48,524.48,524.48,524.48,524.48,524.48,524.48,524.48,524.48,524.48,524.48,524.48,524.48,524.48,524.48,524.48,524.48,524.48,524.48,524.48,524.48
299.16,299.16,299.16,299.16,299.16,299.16,299.16,299.16,300.51,300.51,300.51,300.51,301.85,301.85,301.85,301.85,303.19,303.19,303.19,303.19,303.19,303.19,304.53,304.53,304.53,305.87,305.87,305.87,305.87,305.87,305.87,305.87,305.87,307.21,307.21,307.21,307.21,308.55,308.55,308.55,308.55,308.55,309.89,309.89,309.89,309.89,309.89,316.60,316.60,316.60,316.60,319.28,319.28,321.96,321.96,328.67,328.67,328.67,328.67,332.69,335.38,335.38,335.38,338.06,338.06,338.06,338.06,342.08,342.08,342.08,344.76,344.76,344.76,351.47,351.47,354.15,354.15,356.84,356.84,360.86,360.86,360.86,360.86,363.54,363.54,363.54,370.25,370.25,370.25,370.25,372.93,372.93,372.93,379.64,379.64,379.64,382.32,385.00,385.00,385.00,391.71,391.71,391.71,391.71,391.71,391.71,391.71,391.71,394.39,394.39,394.39,401.09,401.09,401.09,405.12,405.12,410.48,410.48,410.48,410.48,414.51,414.51,414.51,414.51,419.87,419.87,419.87,419.87,419.87,423.89,423.89,423.89,423.89,429.26,429.26,429.26,429.26,433.28,433.28,433.28,438.65,438.65,438.65,438.65,442.67,442.67,442.67,442.67,448.04,448.04,448.04,448.04,452.06,454.74,454.74,457.42,457.42,457.42,457.42,461.45,461.45,461.45,461.45,464.13,464.13,464.13,464.13,466.81,477.54,477.54,486.93,505.71,524.48,524.48,532.53,540.58,548.62,548.62,548.62,549.96,551.31,552.65,552.65,552.65,552.65,552.65,552.65,552.65,552.65,552.65,552.65,552.65,552.65,551.31,551.31,551.31,549.96,549.96,548.62,547.28,547.28,543.26,540.58,540.58,532.53,532.53,532.53,527.16,524.48,524.48,524.48,517.78,517.78,517.78,517.78,513.75,513.75,513.75,513.75,513.75,513.75,513.75,513.75,513.75,513.75,513.75,513.75,513.75,513.75,517.78,517.78,517.78,524.48,524.48,524.48,524.48,527.16,527.16,532.53,540.58,540.58,540.58,543.26,547.28,547.28,547.28,547.28,548.62,548.62,548.62,548.62,548.62,548.62,548.62,548.62,547.28,547.28,547.28,547.28,547.28,547.28,547.28,547.28,547.28,547.28,543.26,543.26,543.26,543.26,540.58,540.58,540.58,540.58,540.58,540.58,540.58,540.58,540.58,540.58,532.53,532.53,532.53,532.53,532.53,532.53,527.16,527.16,527.16,524.48,524.48,524.48,524.48,524.48,524.48,517.78,513.75,513.75,505.71,505.71,505.71,505.71,505.71,505.71,505.71,505.71,505.71,505.71,505.71,505.71,505.71,505.71,505.71,505.71,505.71,505.71,505.71,505.71,505.71,505.71,513.75,513.75,513.75,513.75,517.78,517.78,517.78,517.78,517.78,524.48,524.48,524.48,524.48,524.48,524.48,524.48,524.48,524.48,524.48,524.48,524.48,524.48,524.48,524.48,527.16,527.16,527.16,532.53,532.53,532.53,540.58,540.58,540.58,540.58,543.26,543.26,543.26,543.26,543.26,543.26,543.26,543.26,543.26,543.26,543.26,543.26,543.26,543.26,543.26,543.26,543.26,543.26,540.58,540.58,540.58,540.58,540.58,532.53,532.53,527.16,524.48,524.48,524.48,517.78,517.78,517.78,513.75,513.75,513.75,513.75,513.75,513.75,513.75,532.53,570.08,570.08,536.55,536.55,536.55,524.48,524.48,524.48,524.48,524.48,524.48,524.48,524.48,524.48,524.48,524.48,524.48,524.48,524.48,524.48,524.48,524.48,524.48,524.48,524.48,524.48,524.48,524.48,524.48,524.48,524.48,524.48,524.48
299.16,299.16,299.16,299.16,299.16,299.16,299.16,299.16,300.51,300.51,300.51,300.51,301.85,301.85,301.85,301.85,303.19,303.19,303.19,303.19,303.19,303.19,304.53,304.53,304.53,305.87,305.87,305.87,305.87,305.87,305.87,305.87,305.87,307.21,307.21,307.21,307.21,308.55,308.55,308.55,308.55,308.55,309.89,309.89,309.89,309.89,309.89,316.60,316.60,316.60,316.60,319.28,319.28,321.96,321.96,328.67,328.67,328.67,328.67,332.69,332.69,332.69,335.38,338.06,338.06,338.06,338.06,338.06,342.08,342.08,344.76,344.76,344.76,351.47,351.47,354.15,354.15,356.84,356.84,360.86,360.86,360.86,360.86,360.86,360.86,363.54,370.25,370.25,370.25,370.25,372.93,372.93,372.93,379.64,379.64,379.64,382.32,385.00,385.00,385.00,391.71,391.71,391.71,391.71,391.71,391.71,391.71,391.71,394.39,394.39,394.39,401.09,401.09,401.09,405.12,405.12,410.48,410.48,410.48,410.48,414.51,414.51,414.51,414.51,419.87,419.87,419.87,419.87,419.87,423.89,423.89,423.89,423.89,429.26,429.26,429.26,429.26,433.28,433.28,433.28,433.28,438.65,438.65,438.65,438.65,442.67,442.67,442.67,448.04,448.04,448.04,448.04,452.06,454.74,454.74,457.42,457.42,457.42,457.42,461.45,461.45,461.45,461.45,464.13,464.13,464.13,464.13,466.81,477.54,477.54,486.93,505.71,524.48,524.48,527.16,540.58,547.28,548.62,548.62,549.96,551.31,552.65,552.65,552.65,552.65,552.65,552.65,552.65,552.65,552.65,552.65,552.65,552.65,551.31,551.31,551.31,549.96,549.96,548.62,547.28,547.28,543.26,540.58,540.58,532.53,532.53,532.53,527.16,527.16,527.16,527.16,524.48,524.48,524.48,524.48,524.48,524.48,524.48,524.48,524.48,517.78,517.78,517.78,517.78,517.78,517.78,517.78,517.78,517.78,524.48,524.48,524.48,524.48,524.48,524.48,527.16,532.53,532.53,532.53,540.58,540.58,540.58,543.26,547.28,547.28,547.28,548.62,548.62,548.62,548.62,548.62,548.62,548.62,548.62,548.62,547.28,547.28,547.28,547.28,547.28,547.28,547.28,547.28,547.28,547.28,543.26,543.26,543.26,543.26,540.58,540.58,540.58,540.58,540.58,540.58,540.58,540.58,540.58,532.53,532.53,532.53,532.53,527.16,527.16,527.16,527.16,527.16,524.48,524.48,524.48,524.48,524.48,524.48,524.48,517.78,513.75,513.75,505.71,505.71,505.71,505.71,505.71,505.71,505.71,505.71,505.71,505.71,505.71,505.71,505.71,505.71,505.71,505.71,505.71,505.71,505.71,505.71,505.71,505.71,513.75,513.75,513.75,513.75,513.75,513.75,517.78,517.78,517.78,524.48,524.48,524.48,524.48,524.48,524.48,524.48,524.48,524.48,524.48,524.48,524.48,524.48,524.48,524.48,527.16,527.16,527.16,532.53,532.53,532.53,540.58,540.58,540.58,540.58,543.26,543.26,543.26,543.26,543.26,543.26,543.26,543.26,543.26,543.26,543.26,543.26,543.26,547.28,547.28,547.28,543.26,543.26,543.26,540.58,540.58,540.58,540.58,532.53,532.53,527.16,524.48,524.48,524.48,517.78,517.78,517.78,513.75,513.75,513.75,513.75,513.75,513.75,513.75,570.08,556.67,556.67,556.67,555.33,555.33,524.48,524.48,524.48,524.48,524.48,524.48,524.48,524.48,524.48,524.48,524.48,524.48,524.48,524.48,524.48,524.48,524.48,524.48,524.48,524.48,524.48,524.48,524.48,524.48,524.48,524.48,524.48,524.48
