327.09,327.09,326.50,327.09,327.09,327.09,327.09,327.09,327.69,327.09,327.69,327.69,327.69,327.69,328.28,331.83,360.85,374.47,399.93,398.75,399.34,398.75,398.75,398.75,398.75,398.75,398.15,398.75,398.15,398.15,398.75,397.56,398.75,398.15,398.15,397.56,398.15,397.56,398.15,397.56,397.56,397.56,397.56,397.56,398.15,398.75,400.52,406.44,406.44,406.44,406.44,406.44,406.44,406.44,406.44,418.88,418.88,418.88,418.88,418.88,418.88,418.88,418.88,406.44,406.44,406.44,406.44,406.44,406.44,406.44,406.44,406.44,406.44,406.44,406.44,406.44,418.88,418.88,418.88,418.88,418.88,418.88,418.88,418.88,418.88,418.88,418.88,418.88,418.88,436.05,436.05,436.05,436.05,436.05,436.05,436.05,436.05,436.05,418.88,418.88,436.05,436.05,436.05,436.05,436.05,419.47,402.30,379.80,360.25,324.13,320.58,320.58,319.40,317.62,317.62,317.62,317.62,317.62,317.62,317.62,317.62,317.62,317.62,317.62,317.62,317.62,317.62,317.62,318.21,318.21,318.80,318.80,318.80,319.40,319.40,319.99,319.99,319.99,319.99,319.99,319.40,319.40,319.40,319.40,319.40,319.40,318.80,318.21,318.21,318.21,317.62,317.62,317.62,317.62,317.62,317.62,317.62,317.62,318.21,318.21,318.21,319.40,320.58,320.58,321.17,329.46,335.38,347.82,347.82,358.48,363.22,367.36,367.36,372.69,383.94,400.52,400.52,415.33,420.06,420.06,420.06,425.98,436.05,436.05,436.05,436.05,436.05,436.05,436.05,436.05,436.05,436.05,436.05,436.05,436.05,436.05,436.05,436.05,436.05,436.05,436.05,436.05,436.05,436.05,436.05,436.05,436.05,436.05,436.05,436.05,436.05,436.05,436.05,436.05,436.05,436.05,436.05,436.05,436.05,436.05,436.05,436.05,436.05,436.05,436.05,436.05,436.05,425.98,425.98,425.98,425.98,425.98,425.98,425.98,425.98,425.98,425.98,425.98,425.98,425.98,425.98,425.98,425.98,425.98,425.98,420.06,420.06,420.06,420.06,420.06,420.06,420.06,420.06,420.06,420.06,420.06,420.06,420.06,420.06,420.06,420.06,420.06,420.06,420.06,420.06,425.98,425.98,425.98,425.98,436.05,436.05,436.05,436.05,436.05,436.05,436.05,436.05,436.05,436.05,436.05,425.98,425.98,425.98,425.98,425.98,425.98,425.98,425.98,420.06,420.06,425.98,425.98,425.98,425.98,425.98,425.98,425.98,425.98,425.98,425.98,425.98,425.98,425.98,425.98,425.98,425.98,425.98,425.98,425.98,425.98,425.98,436.05,436.05,436.05,436.05,436.05,436.05,436.05,436.05,436.05,436.05,425.98,425.98,425.98,425.98,425.98,425.98,420.06,420.06,420.06,420.06,420.06,420.06,420.06,420.06,425.98,425.98,425.98,425.98,425.98,425.98,425.98,425.98,425.98,425.98,425.98,425.98,425.98,425.98,425.98,425.98,425.98,425.98,425.98,425.98,425.98,425.98,425.98,425.98,425.98,425.98,425.98,420.06,420.06,420.06,415.33,415.33,415.33,400.52,400.52,400.52,383.94,383.94,372.69,367.36,367.36,363.22,358.48,351.96,351.96,347.82,340.71,340.71,337.75,335.38,335.38,332.42,329.46,329.46,329.46,326.50,326.50,326.50,326.50,326.50,329.46,329.46,326.50,326.50,326.50,326.50,326.50,326.50,326.50,326.50,326.50,326.50,326.50,326.50,326.50,326.50,326.50,326.50,322.36,322.36,322.36,322.36,322.36,322.36,322.36,322.36,326.50,326.50,326.50,326.50,326.50
326.50,327.09,327.09,327.09,327.09,327.09,327.69,327.09,327.69,327.69,327.09,327.69,328.28,327.69,328.28,332.42,357.89,374.47,399.34,398.75,398.75,398.75,398.15,398.75,398.15,398.15,398.15,397.56,398.15,397.56,398.15,397.56,398.15,397.56,398.15,397.56,397.56,397.56,397.56,397.56,397.56,397.56,397.56,396.97,397.56,397.56,393.42,406.44,406.44,406.44,406.44,406.44,406.44,406.44,406.44,406.44,418.88,418.88,418.88,418.88,406.44,406.44,406.44,406.44,406.44,406.44,406.44,406.44,406.44,406.44,406.44,406.44,406.44,406.44,406.44,406.44,406.44,418.88,418.88,418.88,418.88,418.88,418.88,418.88,418.88,418.88,418.88,418.88,418.88,436.05,436.05,436.05,436.05,418.88,418.88,418.88,418.88,418.88,418.88,418.88,418.88,418.88,436.05,436.05,436.05,420.06,420.06,398.15,365.58,340.12,322.95,321.76,319.99,317.62,317.62,317.62,317.62,317.62,317.62,317.62,317.62,317.62,317.62,317.62,317.62,317.62,317.62,317.62,318.21,318.21,318.80,319.40,319.40,319.40,319.40,319.99,319.99,319.99,319.99,319.99,319.40,319.40,319.40,319.40,319.40,319.40,318.80,318.80,318.80,318.21,317.62,317.62,317.62,317.62,317.62,317.62,317.62,317.62,318.21,318.21,318.21,319.40,320.58,320.58,321.17,329.46,335.38,347.82,347.82,358.48,367.36,367.36,367.36,372.69,383.94,400.52,400.52,415.33,420.06,425.98,425.98,425.98,436.05,436.05,436.05,418.88,418.88,418.88,436.05,436.05,436.05,436.05,436.05,436.05,436.05,436.05,436.05,436.05,436.05,436.05,436.05,436.05,436.05,436.05,436.05,436.05,436.05,436.05,436.05,436.05,436.05,436.05,436.05,436.05,436.05,436.05,436.05,436.05,436.05,436.05,436.05,436.05,436.05,436.05,436.05,425.98,425.98,425.98,425.98,425.98,425.98,425.98,425.98,425.98,425.98,425.98,425.98,425.98,425.98,425.98,425.98,425.98,425.98,425.98,425.98,425.98,425.98,425.98,425.98,420.06,420.06,420.06,420.06,420.06,420.06,420.06,420.06,420.06,420.06,420.06,420.06,420.06,420.06,420.06,420.06,425.98,425.98,425.98,425.98,425.98,436.05,436.05,436.05,436.05,436.05,436.05,436.05,436.05,425.98,425.98,425.98,425.98,425.98,425.98,425.98,425.98,425.98,425.98,425.98,425.98,425.98,425.98,425.98,425.98,425.98,425.98,425.98,425.98,425.98,425.98,425.98,425.98,425.98,425.98,425.98,425.98,425.98,425.98,425.98,425.98,436.05,436.05,436.05,436.05,436.05,436.05,436.05,436.05,436.05,436.05,436.05,425.98,425.98,425.98,425.98,425.98,425.98,420.06,420.06,420.06,420.06,420.06,420.06,420.06,420.06,425.98,425.98,425.98,425.98,425.98,425.98,425.98,425.98,425.98,425.98,425.98,425.98,425.98,425.98,425.98,425.98,425.98,425.98,425.98,425.98,425.98,425.98,425.98,425.98,425.98,425.98,425.98,420.06,420.06,420.06,415.33,415.33,415.33,400.52,400.52,400.52,383.94,383.94,372.69,367.36,367.36,363.22,358.48,351.96,351.96,347.82,340.71,340.71,337.75,335.38,335.38,332.42,329.46,329.46,329.46,326.50,326.50,326.50,326.50,326.50,326.50,327.09,326.50,326.50,326.50,326.50,326.50,326.50,326.50,326.50,326.50,326.50,326.50,326.50,326.50,326.50,326.50,326.50,326.50,326.50,326.50,322.36,322.36,326.50,326.50,326.50,326.50,326.50,326.50,326.50,326.50
327.09,327.09,327.09,327.09,327.09,327.09,327.09,327.09,327.09,327.09,327.69,327.69,327.69,327.69,327.69,328.28,348.41,367.36,393.42,398.75,398.15,398.15,398.15,398.15,398.15,398.15,398.15,397.56,397.56,397.56,396.97,397.56,396.97,396.97,396.38,396.38,396.38,396.97,395.78,396.38,395.78,395.78,395.78,395.78,395.78,395.78,393.42,393.42,393.42,406.44,406.44,406.44,406.44,406.44,406.44,406.44,406.44,406.44,406.44,406.44,406.44,406.44,406.44,406.44,406.44,406.44,406.44,406.44,406.44,406.44,406.44,406.44,406.44,406.44,406.44,406.44,406.44,418.88,418.88,418.88,418.88,418.88,418.88,418.88,418.88,418.88,418.88,418.88,418.88,418.88,418.88,418.88,418.88,418.88,418.88,418.88,418.88,418.88,418.88,418.88,418.88,418.88,436.05,436.05,436.05,420.06,420.06,411.18,377.43,353.15,328.28,322.36,318.80,318.80,318.80,317.62,317.62,317.62,317.62,317.62,317.62,317.62,317.62,317.62,317.62,317.62,317.62,317.62,318.21,318.21,318.80,319.40,319.40,319.40,319.40,319.99,319.99,319.99,319.99,319.99,319.40,319.40,319.40,319.40,319.40,319.40,319.40,318.80,318.80,318.21,318.21,318.21,317.62,317.62,317.62,317.62,317.62,317.62,318.21,318.21,318.21,319.40,320.58,320.58,321.17,329.46,335.38,347.82,347.82,358.48,367.36,367.36,367.36,372.69,383.94,400.52,400.52,415.33,420.06,425.98,425.98,436.05,436.05,436.05,418.88,418.88,418.88,418.88,418.88,418.88,418.88,436.05,436.05,436.05,436.05,436.05,436.05,436.05,436.05,436.05,436.05,436.05,436.05,436.05,436.05,436.05,436.05,436.05,436.05,436.05,436.05,436.05,436.05,436.05,436.05,436.05,436.05,436.05,436.05,436.05,436.05,436.05,436.05,436.05,436.05,425.98,425.98,425.98,425.98,425.98,425.98,425.98,425.98,425.98,425.98,425.98,425.98,425.98,425.98,425.98,425.98,425.98,425.98,425.98,425.98,425.98,425.98,425.98,425.98,420.06,420.06,420.06,420.06,420.06,420.06,420.06,420.06,420.06,420.06,420.06,420.06,420.06,420.06,425.98,425.98,425.98,425.98,425.98,425.98,425.98,436.05,436.05,436.05,436.05,436.05,436.05,436.05,431.91,425.98,425.98,425.98,425.98,425.98,425.98,425.98,425.98,425.98,425.98,425.98,425.98,425.98,425.98,425.98,425.98,425.98,425.98,425.98,425.98,425.98,425.98,425.98,425.98,425.98,425.98,425.98,425.98,425.98,425.98,425.98,425.98,436.05,436.05,436.05,436.05,436.05,436.05,436.05,436.05,436.05,436.05,436.05,425.98,425.98,425.98,425.98,425.98,425.98,420.06,420.06,420.06,420.06,420.06,420.06,420.06,420.06,425.98,425.98,425.98,425.98,425.98,425.98,425.98,425.98,425.98,425.98,425.98,425.98,425.98,425.98,425.98,425.98,425.98,425.98,425.98,425.98,425.98,425.98,425.98,425.98,425.98,425.98,420.06,420.06,420.06,415.33,415.33,415.33,400.52,400.52,400.52,383.94,372.69,372.69,367.36,363.22,363.22,358.48,351.96,351.96,347.82,340.71,340.71,340.71,335.38,332.42,332.42,329.46,326.50,326.50,326.50,326.50,326.50,322.36,322.36,322.36,322.36,322.36,322.36,322.36,322.36,322.36,326.50,326.50,326.50,326.50,326.50,326.50,326.50,326.50,326.50,326.50,326.50,326.50,326.50,326.50,326.50,322.36,322.36,326.50,326.50,326.50,326.50,326.50,326.50,326.50,326.50
326.50,327.09,327.09,327.09,327.69,327.09,327.69,327.69,327.69,327.69,327.09,328.87,327.69,328.87,327.69,328.28,349.60,366.77,395.19,398.75,398.15,398.15,398.15,398.15,397.56,397.56,397.56,397.56,396.97,396.97,396.38,396.97,396.38,396.38,396.38,396.38,396.38,395.78,395.78,395.78,395.78,395.19,395.19,395.19,394.60,394.60,393.42,393.42,393.42,393.42,393.42,393.42,406.44,406.44,406.44,406.44,406.44,406.44,406.44,406.44,406.44,406.44,406.44,406.44,406.44,406.44,406.44,406.44,406.44,406.44,406.44,406.44,406.44,406.44,406.44,406.44,406.44,418.88,418.88,418.88,418.88,418.88,418.88,418.88,418.88,418.88,418.88,418.88,418.88,418.88,418.88,418.88,418.88,418.88,418.88,418.88,418.88,436.05,436.05,436.05,436.05,436.05,425.98,420.06,420.06,415.33,415.33,408.22,389.86,355.52,340.71,325.91,318.80,318.21,318.21,317.62,317.62,317.62,317.62,317.62,317.62,317.62,317.62,317.62,317.62,317.62,317.62,317.62,318.21,318.21,318.80,318.80,318.80,319.40,319.40,319.40,319.40,319.99,319.99,319.99,319.40,319.40,319.40,319.40,319.40,319.40,319.40,318.80,318.80,318.21,318.21,318.21,317.62,317.62,317.62,317.62,317.62,317.62,318.21,318.21,318.21,319.40,320.58,320.58,321.17,329.46,335.38,347.82,347.82,358.48,367.36,367.36,367.36,372.69,383.94,400.52,400.52,415.33,420.06,425.98,425.98,436.05,436.05,436.05,418.88,418.88,418.88,418.88,418.88,418.88,418.88,436.05,436.05,436.05,436.05,436.05,436.05,436.05,436.05,436.05,425.98,425.98,425.98,425.98,425.98,425.98,436.05,436.05,436.05,436.05,436.05,436.05,436.05,436.05,436.05,436.05,436.05,436.05,436.05,436.05,436.05,436.05,436.05,436.05,436.05,425.98,425.98,425.98,425.98,425.98,425.98,425.98,425.98,425.98,425.98,425.98,425.98,425.98,425.98,425.98,425.98,425.98,425.98,425.98,425.98,425.98,425.98,425.98,425.98,420.06,420.06,420.06,420.06,420.06,420.06,420.06,420.06,420.06,420.06,420.06,420.06,420.06,420.06,425.98,425.98,425.98,425.98,425.98,425.98,425.98,436.05,436.05,436.05,436.05,436.05,436.05,436.05,429.54,425.98,425.98,425.98,425.98,425.98,425.98,425.98,425.98,425.98,425.98,425.98,425.98,425.98,425.98,425.98,425.98,425.98,425.98,425.98,425.98,425.98,425.98,425.98,425.98,425.98,425.98,425.98,425.98,425.98,425.98,436.05,436.05,436.05,436.05,436.05,436.05,436.05,418.88,418.88,418.88,418.88,436.05,436.05,436.05,436.05,425.98,425.98,425.98,425.98,420.06,420.06,420.06,420.06,420.06,420.06,420.06,425.98,425.98,425.98,425.98,425.98,425.98,425.98,425.98,425.98,425.98,425.98,425.98,425.98,425.98,425.98,425.98,425.98,425.98,425.98,425.98,425.98,425.98,425.98,425.98,425.98,425.98,425.98,420.06,420.06,415.33,415.33,400.52,400.52,383.94,383.94,383.94,372.69,367.36,367.36,363.22,358.48,358.48,351.96,347.82,347.82,340.71,337.75,337.75,335.38,332.42,329.46,329.46,326.50,326.50,326.50,326.50,322.36,322.36,322.36,322.36,322.36,322.36,322.36,322.36,322.36,322.36,322.36,326.50,326.50,326.50,326.50,326.50,326.50,326.50,326.50,326.50,326.50,326.50,326.50,326.50,326.50,326.50,326.50,326.50,326.50,326.50,326.50,326.50,326.50,326.50,326.50,329.46
327.09,327.09,327.09,327.09,327.09,327.09,327.09,327.09,327.09,327.09,328.28,327.09,327.69,327.09,328.28,327.69,350.19,367.95,395.78,398.15,398.15,397.56,398.15,397.56,397.56,396.97,397.56,396.38,396.97,396.38,396.38,395.78,396.38,395.78,395.78,395.78,395.19,395.19,395.19,394.60,394.60,394.60,394.60,394.60,394.01,394.01,393.42,393.42,393.42,393.42,393.42,393.42,406.44,406.44,406.44,406.44,406.44,406.44,406.44,406.44,406.44,406.44,406.44,406.44,406.44,406.44,406.44,406.44,406.44,406.44,406.44,406.44,406.44,406.44,406.44,406.44,406.44,418.88,418.88,418.88,418.88,418.88,418.88,418.88,418.88,418.88,418.88,418.88,418.88,418.88,418.88,418.88,418.88,418.88,418.88,418.88,418.88,436.05,436.05,436.05,425.98,425.98,420.06,415.33,415.33,383.94,383.94,389.27,382.16,350.78,337.75,324.73,318.80,318.21,318.21,317.62,317.62,317.62,317.62,317.62,317.62,317.62,317.62,317.62,317.62,317.62,317.62,317.62,318.21,318.21,318.80,318.80,318.80,319.40,319.40,319.40,319.40,319.99,319.99,319.99,319.40,319.40,319.40,319.40,319.40,319.40,319.40,318.80,318.80,318.21,318.21,318.21,317.62,317.62,317.62,317.62,317.62,317.62,318.21,318.21,318.80,319.40,320.58,320.58,322.36,329.46,335.38,347.82,347.82,358.48,367.36,372.69,372.69,372.69,383.94,400.52,400.52,415.33,420.06,425.98,425.98,436.05,418.88,418.88,418.88,418.88,418.88,418.88,418.88,418.88,418.88,436.05,436.05,436.05,436.05,436.05,436.05,425.98,425.98,425.98,425.98,425.98,425.98,425.98,425.98,425.98,425.98,425.98,436.05,436.05,436.05,436.05,436.05,436.05,436.05,436.05,436.05,436.05,436.05,436.05,436.05,436.05,436.05,436.05,436.05,425.98,425.98,425.98,425.98,425.98,425.98,425.98,425.98,425.98,425.98,425.98,425.98,425.98,425.98,425.98,425.98,425.98,425.98,425.98,425.98,425.98,425.98,425.98,425.98,425.98,425.98,420.06,420.06,420.06,420.06,420.06,420.06,420.06,420.06,420.06,420.06,420.06,420.06,425.98,425.98,425.98,425.98,425.98,425.98,425.98,425.98,425.98,425.98,436.05,436.05,425.98,425.98,425.98,425.98,425.98,425.98,425.98,425.98,425.98,425.98,425.98,425.98,425.98,425.98,425.98,425.98,425.98,425.98,425.98,425.98,425.98,425.98,425.98,425.98,425.98,425.98,425.98,425.98,425.98,425.98,425.98,425.98,425.98,436.05,436.05,436.05,436.05,436.05,436.05,418.88,418.88,418.88,418.88,418.88,436.05,436.05,436.05,436.05,436.05,425.98,425.98,425.98,425.98,425.98,425.98,425.98,420.06,420.06,420.06,425.98,425.98,425.98,425.98,425.98,425.98,425.98,425.98,425.98,425.98,425.98,425.98,425.98,425.98,425.98,425.98,425.98,425.98,425.98,425.98,425.98,425.98,425.98,425.98,425.98,425.98,420.06,420.06,420.06,415.33,400.52,383.94,383.94,383.94,372.69,372.69,367.36,363.22,363.22,358.48,351.96,351.96,347.82,347.82,347.82,340.71,335.38,335.38,335.38,332.42,329.46,329.46,326.50,326.50,326.50,326.50,322.36,322.36,322.36,322.36,322.36,322.36,322.36,322.36,322.36,322.36,326.50,326.50,326.50,326.50,326.50,326.50,326.50,326.50,326.50,329.46,329.46,326.50,326.50,326.50,326.50,326.50,326.50,326.50,326.50,326.50,326.50,326.50,329.46,329.46,329.46,329.46
326.50,326.50,327.09,327.09,327.09,327.09,328.28,327.09,327.69,327.69,327.09,328.28,327.69,328.87,327.69,328.28,351.96,368.55,392.82,398.75,398.15,398.15,398.15,397.56,397.56,397.56,396.97,396.97,396.38,396.38,395.78,396.38,395.78,395.78,395.19,395.78,394.60,395.19,395.19,394.60,394.60,394.60,394.60,394.60,394.60,393.42,393.42,393.42,393.42,393.42,393.42,393.42,393.42,393.42,406.44,406.44,406.44,406.44,406.44,406.44,406.44,406.44,406.44,406.44,406.44,406.44,406.44,406.44,406.44,406.44,406.44,406.44,406.44,406.44,406.44,406.44,406.44,418.88,418.88,418.88,418.88,418.88,418.88,418.88,418.88,418.88,418.88,418.88,418.88,418.88,418.88,418.88,418.88,418.88,418.88,418.88,436.05,436.05,436.05,425.98,420.06,420.06,415.33,383.94,383.94,367.36,367.36,371.51,364.40,349.00,333.02,320.58,319.40,318.21,318.21,318.21,317.62,317.62,317.62,317.62,317.62,317.62,317.62,317.62,317.62,317.62,317.62,317.62,318.21,318.21,318.80,319.40,319.40,319.40,319.40,319.40,319.40,319.99,319.99,319.99,319.40,319.40,319.40,319.40,319.40,319.40,319.40,318.80,318.80,318.80,318.21,318.21,318.21,317.62,317.62,317.62,317.62,318.21,318.21,318.21,318.80,319.40,320.58,320.58,322.36,335.38,335.38,347.82,347.82,358.48,367.36,372.69,372.69,372.69,383.94,400.52,400.52,415.33,420.06,425.98,425.98,436.05,418.88,418.88,418.88,406.44,406.44,418.88,418.88,418.88,418.88,436.05,436.05,436.05,436.05,436.05,436.05,425.98,425.98,425.98,425.98,425.98,425.98,425.98,425.98,425.98,425.98,425.98,436.05,436.05,436.05,436.05,436.05,436.05,436.05,436.05,436.05,436.05,436.05,436.05,436.05,436.05,436.05,436.05,436.05,425.98,425.98,425.98,425.98,425.98,425.98,425.98,425.98,425.98,425.98,425.98,425.98,425.98,425.98,425.98,425.98,425.98,425.98,425.98,425.98,425.98,425.98,425.98,425.98,425.98,425.98,425.98,420.06,420.06,420.06,420.06,420.06,420.06,420.06,420.06,420.06,420.06,420.06,425.98,425.98,425.98,425.98,425.98,425.98,425.98,425.98,425.98,425.98,436.05,436.05,425.98,425.98,425.98,425.98,425.98,425.98,425.98,425.98,425.98,425.98,425.98,425.98,425.98,425.98,425.98,425.98,425.98,425.98,425.98,425.98,425.98,425.98,425.98,425.98,425.98,425.98,425.98,425.98,425.98,425.98,425.98,436.05,436.05,436.05,436.05,436.05,436.05,436.05,436.05,418.88,418.88,418.88,418.88,418.88,436.05,436.05,436.05,436.05,436.05,425.98,425.98,425.98,425.98,425.98,425.98,425.98,425.98,425.98,425.98,425.98,425.98,425.98,425.98,425.98,425.98,425.98,425.98,425.98,425.98,425.98,425.98,425.98,425.98,425.98,425.98,425.98,425.98,425.98,425.98,425.98,425.98,425.98,425.98,425.98,425.98,420.06,420.06,420.06,415.33,400.52,383.94,383.94,383.94,372.69,372.69,367.36,363.22,363.22,358.48,351.96,351.96,347.82,347.82,347.82,340.71,335.38,335.38,332.42,332.42,329.46,329.46,326.50,326.50,326.50,322.36,322.36,322.36,322.36,322.36,322.36,322.36,322.36,322.36,322.36,322.36,326.50,326.50,326.50,326.50,326.50,326.50,326.50,326.50,326.50,329.46,329.46,326.50,326.50,326.50,326.50,326.50,326.50,326.50,326.50,326.50,326.50,326.50,329.46,329.46,329.46,329.46
326.50,327.09,327.09,327.09,327.69,327.09,327.09,327.69,327.09,328.28,327.09,328.28,327.69,328.28,327.69,328.28,353.74,366.18,388.09,399.34,398.75,398.15,398.15,398.15,397.56,397.56,396.97,396.97,396.38,396.38,395.78,395.78,395.19,395.19,394.60,394.60,394.60,394.01,394.01,393.42,393.42,392.82,392.82,392.82,393.42,393.42,393.42,393.42,393.42,393.42,393.42,393.42,393.42,393.42,393.42,393.42,393.42,393.42,393.42,393.42,406.44,406.44,406.44,393.42,393.42,393.42,393.42,406.44,406.44,406.44,406.44,406.44,406.44,406.44,406.44,406.44,406.44,418.88,418.88,418.88,418.88,418.88,418.88,418.88,418.88,418.88,418.88,418.88,418.88,418.88,418.88,418.88,418.88,418.88,418.88,418.88,436.05,436.05,436.05,425.98,420.06,420.06,415.33,383.94,383.94,367.36,367.36,360.25,349.00,335.98,324.73,321.76,319.40,318.80,318.80,318.21,317.62,317.62,317.62,317.62,317.62,317.62,317.62,317.62,317.62,317.62,317.62,317.62,318.21,318.21,318.80,319.40,319.40,319.40,319.40,319.40,319.40,319.99,319.99,319.99,319.99,319.40,319.40,319.40,319.40,319.40,319.40,319.40,319.40,318.80,318.21,318.21,318.21,318.21,318.21,318.21,318.21,318.21,318.21,318.21,318.80,319.40,320.58,320.58,322.36,335.38,335.38,347.82,347.82,358.48,367.36,372.69,372.69,372.69,383.94,400.52,400.52,415.33,420.06,425.98,425.98,436.05,418.88,418.88,418.88,418.88,406.44,418.88,418.88,418.88,418.88,436.05,436.05,436.05,436.05,436.05,436.05,425.98,425.98,425.98,425.98,425.98,425.98,425.98,425.98,425.98,425.98,425.98,425.98,425.98,425.98,436.05,436.05,436.05,436.05,436.05,436.05,436.05,436.05,436.05,436.05,436.05,436.05,436.05,436.05,425.98,425.98,425.98,425.98,425.98,425.98,425.98,425.98,425.98,425.98,425.98,425.98,425.98,425.98,425.98,425.98,425.98,425.98,425.98,425.98,425.98,425.98,425.98,425.98,425.98,425.98,425.98,420.06,420.06,420.06,420.06,420.06,420.06,420.06,420.06,420.06,420.06,420.06,425.98,425.98,425.98,425.98,425.98,425.98,425.98,425.98,425.98,425.98,425.98,425.98,425.98,425.98,425.98,425.98,425.98,425.98,425.98,425.98,425.98,425.98,425.98,425.98,425.98,425.98,425.98,425.98,425.98,425.98,425.98,425.98,425.98,425.98,425.98,425.98,425.98,425.98,425.98,425.98,425.98,425.98,425.98,436.05,436.05,436.05,436.05,436.05,436.05,436.05,436.05,418.88,418.88,418.88,418.88,418.88,436.05,436.05,436.05,436.05,436.05,425.98,425.98,425.98,425.98,425.98,425.98,425.98,425.98,425.98,425.98,425.98,425.98,425.98,425.98,425.98,425.98,425.98,425.98,425.98,425.98,425.98,425.98,425.98,425.98,425.98,425.98,425.98,425.98,425.98,425.98,425.98,425.98,425.98,425.98,425.98,425.98,420.06,415.33,415.33,415.33,400.52,383.94,383.94,372.69,367.36,367.36,363.22,358.48,358.48,351.96,347.82,347.82,347.82,340.71,340.71,337.75,335.38,335.38,332.42,329.46,329.46,329.46,326.50,326.50,326.50,322.36,322.36,322.36,322.36,322.36,322.36,322.36,322.36,322.36,326.50,326.50,326.50,326.50,326.50,326.50,326.50,326.50,326.50,326.50,329.46,329.46,329.46,329.46,329.46,329.46,329.46,329.46,329.46,329.46,329.46,329.46,329.46,329.46,329.46,329.46,329.46,329.46
327.09,327.09,327.09,327.09,327.09,327.09,328.28,327.09,328.28,327.09,328.28,327.09,328.28,327.69,328.28,327.69,347.82,365.58,387.49,399.34,398.75,398.75,398.15,398.15,397.56,397.56,396.97,396.97,396.97,396.38,396.38,395.78,395.19,395.19,394.60,394.01,394.60,394.01,394.01,393.42,392.82,392.82,392.82,392.23,392.23,392.82,393.42,393.42,393.42,393.42,393.42,393.42,393.42,393.42,393.42,393.42,393.42,393.42,393.42,393.42,406.44,406.44,406.44,393.42,393.42,393.42,393.42,406.44,406.44,406.44,406.44,406.44,406.44,406.44,406.44,406.44,406.44,418.88,418.88,418.88,418.88,418.88,418.88,418.88,418.88,418.88,418.88,418.88,418.88,418.88,418.88,418.88,436.05,436.05,436.05,436.05,436.05,425.98,425.98,420.06,415.33,415.33,383.94,367.36,367.36,367.36,367.36,351.96,329.46,329.46,329.46,319.99,319.99,318.80,318.80,318.21,317.62,317.62,317.62,317.62,317.62,317.62,317.62,317.62,317.62,317.62,317.62,317.62,318.21,318.21,318.80,319.40,319.40,319.40,319.40,319.40,319.40,319.99,319.99,319.99,319.99,319.40,319.40,319.40,319.40,319.40,319.40,319.40,319.40,318.80,318.21,318.21,318.21,318.21,318.21,318.21,318.21,318.21,318.21,318.21,318.80,319.40,320.58,320.58,322.36,335.38,335.38,347.82,347.82,358.48,367.36,372.69,372.69,383.94,383.94,400.52,400.52,415.33,420.06,425.98,425.98,436.05,418.88,418.88,418.88,418.88,406.44,418.88,418.88,418.88,418.88,436.05,436.05,436.05,436.05,436.05,436.05,425.98,425.98,425.98,425.98,425.98,425.98,425.98,425.98,425.98,425.98,425.98,425.98,425.98,425.98,425.98,425.98,436.05,436.05,436.05,436.05,436.05,436.05,436.05,436.05,436.05,436.05,436.05,436.05,436.05,436.05,436.05,425.98,425.98,425.98,425.98,425.98,425.98,425.98,425.98,425.98,425.98,425.98,425.98,425.98,425.98,425.98,425.98,425.98,425.98,425.98,425.98,425.98,425.98,425.98,425.98,420.06,420.06,420.06,420.06,420.06,425.98,425.98,420.06,420.06,420.06,425.98,425.98,425.98,425.98,425.98,425.98,425.98,425.98,425.98,425.98,425.98,425.98,425.98,425.98,425.98,425.98,425.98,425.98,425.98,425.98,425.98,425.98,425.98,425.98,425.98,425.98,425.98,425.98,425.98,425.98,425.98,425.98,425.98,425.98,425.98,425.98,425.98,425.98,425.98,436.05,436.05,436.05,436.05,436.05,436.05,436.05,436.05,436.05,436.05,436.05,436.05,436.05,418.88,418.88,418.88,418.88,418.88,436.05,436.05,436.05,436.05,436.05,436.05,436.05,425.98,425.98,425.98,425.98,425.98,425.98,425.98,425.98,425.98,425.98,425.98,425.98,425.98,425.98,425.98,425.98,425.98,425.98,425.98,425.98,425.98,425.98,425.98,425.98,425.98,425.98,425.98,425.98,425.98,425.98,425.98,425.98,425.98,425.98,420.06,415.33,415.33,400.52,383.94,383.94,372.69,367.36,363.22,363.22,358.48,351.96,351.96,347.82,347.82,347.82,340.71,337.75,337.75,335.38,335.38,335.38,332.42,329.46,329.46,329.46,326.50,326.50,326.50,326.50,322.36,322.36,322.36,322.36,322.36,322.36,322.36,322.36,326.50,326.50,326.50,326.50,326.50,326.50,326.50,329.46,329.46,329.46,329.46,329.46,329.46,329.46,329.46,329.46,329.46,329.46,329.46,329.46,332.42,332.42,332.42,332.42,332.42,332.42,332.42,332.42
327.09,326.50,327.09,327.09,327.09,327.09,327.69,327.09,327.69,327.69,327.69,327.09,328.87,327.69,328.28,327.69,346.04,363.81,388.68,399.34,399.93,399.93,399.34,399.34,398.75,398.15,398.15,397.56,396.97,396.97,396.38,395.78,395.19,395.19,394.60,394.60,394.01,393.42,393.42,392.82,392.82,392.23,391.64,391.64,391.64,391.64,393.42,393.42,393.42,393.42,393.42,393.42,393.42,393.42,393.42,393.42,393.42,393.42,393.42,393.42,393.42,393.42,393.42,393.42,393.42,393.42,393.42,406.44,406.44,406.44,406.44,406.44,406.44,406.44,406.44,406.44,406.44,406.44,406.44,418.88,418.88,418.88,418.88,418.88,418.88,418.88,418.88,418.88,418.88,418.88,418.88,418.88,436.05,436.05,436.05,425.98,420.06,420.06,420.06,400.52,383.94,383.94,367.36,367.36,358.48,347.82,347.82,335.38,322.36,322.36,320.58,319.99,319.40,318.80,318.80,318.21,317.62,317.62,317.62,317.62,317.62,317.62,317.62,317.62,317.62,317.62,317.62,318.21,318.80,318.80,318.80,319.40,319.40,319.40,319.40,319.40,319.40,319.99,319.99,319.99,319.99,319.40,319.40,319.40,319.40,319.40,319.40,319.40,319.40,318.80,318.21,318.21,318.21,318.21,318.21,318.21,318.21,318.21,318.21,318.21,318.80,319.40,320.58,320.58,321.17,329.46,335.38,347.82,347.82,358.48,367.36,372.69,372.69,383.94,383.94,400.52,400.52,415.33,420.06,436.05,436.05,436.05,418.88,418.88,418.88,418.88,418.88,418.88,418.88,418.88,418.88,418.88,418.88,436.05,436.05,436.05,436.05,425.98,425.98,425.98,425.98,425.98,425.98,425.98,425.98,425.98,425.98,425.98,425.98,425.98,425.98,425.98,425.98,436.05,436.05,436.05,436.05,436.05,436.05,436.05,436.05,436.05,436.05,436.05,436.05,436.05,436.05,436.05,436.05,425.98,425.98,425.98,425.98,425.98,425.98,425.98,425.98,425.98,425.98,425.98,425.98,425.98,425.98,425.98,425.98,425.98,425.98,425.98,425.98,425.98,425.98,425.98,425.98,425.98,425.98,420.06,420.06,425.98,425.98,425.98,425.98,425.98,425.98,425.98,425.98,425.98,425.98,425.98,425.98,425.98,425.98,425.98,425.98,425.98,425.98,425.98,425.98,425.98,425.98,425.98,425.98,425.98,425.98,425.98,425.98,425.98,425.98,425.98,425.98,425.98,425.98,425.98,425.98,425.98,436.05,436.05,425.98,425.98,436.05,436.05,436.05,436.05,436.05,436.05,436.05,436.05,436.05,436.05,436.05,436.05,436.05,436.05,436.05,436.05,418.88,418.88,418.88,418.88,418.88,436.05,436.05,436.05,436.05,436.05,436.05,436.05,425.98,425.98,425.98,425.98,425.98,425.98,425.98,425.98,425.98,425.98,425.98,425.98,425.98,425.98,425.98,425.98,425.98,425.98,425.98,425.98,425.98,425.98,425.98,425.98,425.98,425.98,425.98,425.98,425.98,425.98,425.98,425.98,425.98,425.98,420.06,415.33,415.33,400.52,383.94,383.94,372.69,367.36,363.22,363.22,358.48,351.96,351.96,347.82,347.82,347.82,340.71,337.75,337.75,335.38,335.38,335.38,332.42,329.46,329.46,329.46,326.50,326.50,326.50,326.50,326.50,326.50,326.50,326.50,326.50,326.50,326.50,326.50,326.50,326.50,326.50,326.50,329.46,329.46,329.46,329.46,329.46,332.42,332.42,332.42,332.42,332.42,332.42,332.42,332.42,332.42,332.42,332.42,332.42,332.42,332.42,332.42,332.42,332.42,332.42,332.42
327.09,327.09,327.09,327.09,327.69,327.09,327.09,327.69,327.09,328.28,327.69,328.87,327.69,327.69,328.28,328.28,343.67,362.62,388.68,400.52,401.11,400.52,400.52,399.93,399.93,399.34,398.75,398.75,398.15,397.56,397.56,396.97,396.38,396.38,395.19,395.19,394.01,394.01,393.42,393.42,392.82,391.64,391.05,390.45,389.27,387.49,379.80,379.80,379.80,393.42,393.42,393.42,393.42,393.42,393.42,393.42,393.42,393.42,393.42,393.42,393.42,393.42,393.42,393.42,393.42,393.42,393.42,406.44,406.44,406.44,406.44,406.44,406.44,406.44,406.44,406.44,406.44,406.44,406.44,406.44,418.88,418.88,418.88,418.88,418.88,418.88,418.88,418.88,418.88,418.88,418.88,418.88,436.05,436.05,436.05,425.98,420.06,420.06,420.06,400.52,383.94,383.94,367.36,367.36,358.48,347.82,347.82,335.38,322.36,322.36,320.58,320.58,319.40,318.80,318.80,318.21,317.62,317.62,317.62,317.62,317.62,317.62,317.62,317.62,317.62,317.62,317.62,318.21,318.80,318.80,318.80,319.40,319.40,319.40,319.40,319.99,319.99,319.99,319.99,319.99,319.99,319.40,319.40,319.40,319.40,319.40,319.40,319.40,319.40,318.80,318.80,318.80,318.21,318.21,318.21,318.21,318.21,318.21,318.21,318.21,318.80,319.40,320.58,320.58,321.17,329.46,335.38,347.82,347.82,358.48,367.36,372.69,372.69,383.94,383.94,400.52,400.52,415.33,420.06,436.05,436.05,436.05,418.88,418.88,418.88,418.88,418.88,418.88,418.88,418.88,418.88,418.88,418.88,436.05,436.05,436.05,436.05,425.98,425.98,425.98,425.98,425.98,425.98,425.98,425.98,425.98,425.98,425.98,425.98,425.98,425.98,425.98,425.98,436.05,436.05,436.05,436.05,436.05,436.05,436.05,436.05,436.05,436.05,436.05,436.05,436.05,436.05,436.05,436.05,425.98,425.98,425.98,425.98,425.98,425.98,425.98,425.98,425.98,425.98,425.98,425.98,425.98,425.98,425.98,425.98,425.98,425.98,425.98,425.98,425.98,425.98,425.98,425.98,425.98,425.98,420.06,420.06,425.98,425.98,425.98,425.98,425.98,425.98,425.98,425.98,425.98,425.98,425.98,425.98,425.98,425.98,425.98,425.98,425.98,425.98,425.98,425.98,425.98,425.98,425.98,425.98,425.98,425.98,425.98,425.98,425.98,425.98,425.98,425.98,425.98,425.98,425.98,425.98,425.98,436.05,436.05,425.98,425.98,436.05,436.05,436.05,436.05,436.05,436.05,436.05,436.05,436.05,436.05,436.05,436.05,436.05,436.05,436.05,436.05,436.05,436.05,436.05,436.05,436.05,436.05,436.05,436.05,436.05,436.05,425.98,425.98,425.98,425.98,425.98,425.98,425.98,425.98,425.98,425.98,425.98,425.98,425.98,425.98,425.98,425.98,425.98,425.98,425.98,425.98,425.98,425.98,425.98,420.06,420.06,420.06,420.06,420.06,425.98,425.98,425.98,425.98,425.98,425.98,420.06,420.06,415.33,415.33,415.33,383.94,372.69,372.69,367.36,363.22,363.22,358.48,351.96,347.82,347.82,340.71,340.71,340.71,337.75,335.38,335.38,335.38,335.38,335.38,332.42,329.46,329.46,329.46,326.50,326.50,326.50,326.50,326.50,326.50,326.50,326.50,326.50,326.50,326.50,326.50,326.50,326.50,326.50,326.50,329.46,329.46,329.46,329.46,329.46,332.42,332.42,332.42,332.42,332.42,332.42,332.42,332.42,332.42,332.42,332.42,332.42,332.42,332.42,332.42,332.42,332.42,332.42,332.42
327.09,326.50,327.09,327.09,327.09,327.09,327.09,328.28,327.09,327.69,327.69,327.09,327.69,328.28,327.69,328.28,338.94,360.25,383.94,398.15,401.11,401.71,401.71,401.11,401.11,400.52,400.52,399.93,399.34,399.34,398.75,398.75,398.15,397.56,396.97,396.38,395.78,395.19,394.60,394.01,393.42,392.82,392.82,391.64,391.05,391.05,393.42,393.42,393.42,393.42,393.42,393.42,393.42,393.42,393.42,393.42,393.42,393.42,393.42,393.42,393.42,393.42,393.42,393.42,393.42,393.42,393.42,406.44,406.44,406.44,406.44,406.44,406.44,406.44,406.44,406.44,406.44,406.44,406.44,406.44,418.88,418.88,418.88,418.88,418.88,418.88,418.88,418.88,418.88,418.88,436.05,436.05,436.05,425.98,425.98,420.06,415.33,415.33,400.52,383.94,383.94,383.94,358.48,358.48,358.48,337.75,337.75,329.46,321.17,321.17,320.58,320.58,319.40,318.80,318.80,318.21,317.62,317.62,317.62,317.62,317.62,317.62,317.62,317.62,317.62,317.62,317.62,318.21,318.80,318.80,318.80,319.40,319.40,319.40,319.40,319.99,319.99,319.99,319.99,319.99,319.99,319.40,319.40,319.40,319.40,319.40,319.40,319.40,319.40,318.80,318.21,318.21,318.21,318.21,318.21,318.21,318.21,318.21,318.21,318.21,318.80,319.40,320.58,320.58,321.17,329.46,335.38,347.82,347.82,358.48,367.36,372.69,372.69,383.94,383.94,400.52,400.52,415.33,420.06,436.05,436.05,436.05,418.88,418.88,418.88,418.88,418.88,418.88,418.88,418.88,418.88,418.88,418.88,436.05,436.05,436.05,436.05,425.98,425.98,425.98,425.98,425.98,425.98,425.98,425.98,425.98,425.98,425.98,425.98,425.98,425.98,425.98,425.98,425.98,425.98,425.98,425.98,425.98,436.05,436.05,436.05,436.05,436.05,436.05,436.05,436.05,436.05,436.05,436.05,425.98,425.98,425.98,425.98,425.98,425.98,425.98,425.98,425.98,425.98,425.98,425.98,425.98,425.98,425.98,425.98,425.98,425.98,425.98,425.98,425.98,425.98,425.98,425.98,425.98,425.98,425.98,425.98,425.98,425.98,425.98,425.98,425.98,425.98,425.98,425.98,425.98,425.98,425.98,425.98,425.98,425.98,425.98,425.98,425.98,425.98,425.98,425.98,425.98,425.98,425.98,425.98,425.98,425.98,425.98,425.98,425.98,425.98,425.98,425.98,425.98,436.05,436.05,436.05,436.05,436.05,436.05,436.05,436.05,436.05,436.05,436.05,436.05,436.05,436.05,436.05,436.05,436.05,436.05,436.05,436.05,436.05,436.05,436.05,436.05,436.05,436.05,436.05,436.05,436.05,436.05,436.05,436.05,436.05,436.05,425.98,425.98,425.98,425.98,425.98,425.98,425.98,425.98,425.98,425.98,425.98,425.98,425.98,425.98,425.98,425.98,425.98,425.98,425.98,425.98,425.98,425.98,420.06,420.06,420.06,420.06,420.06,420.06,420.06,420.06,420.06,420.06,420.06,420.06,420.06,420.06,415.33,400.52,400.52,383.94,367.36,367.36,363.22,358.48,358.48,351.96,347.82,347.82,340.71,337.75,337.75,337.75,337.75,335.38,335.38,335.38,332.42,332.42,332.42,329.46,329.46,329.46,329.46,326.50,326.50,326.50,326.50,326.50,326.50,326.50,326.50,326.50,326.50,326.50,329.46,329.46,329.46,329.46,329.46,329.46,329.46,332.42,332.42,332.42,332.42,332.42,332.42,332.42,332.42,332.42,332.42,332.42,332.42,332.42,335.38,335.38,335.38,335.38,335.38,335.38,335.38,332.42
327.09,327.09,327.09,327.09,327.09,327.69,327.09,327.69,327.09,327.69,328.28,327.69,327.69,327.69,327.69,328.87,332.42,353.74,378.61,396.97,402.30,402.30,402.89,401.71,401.71,401.11,401.71,401.11,401.11,400.52,400.52,400.52,399.93,399.34,399.34,398.75,398.15,396.97,396.38,395.78,395.19,395.19,394.60,393.42,393.42,392.82,393.42,393.42,393.42,393.42,393.42,393.42,393.42,393.42,393.42,393.42,393.42,393.42,393.42,393.42,393.42,393.42,393.42,393.42,393.42,393.42,393.42,406.44,406.44,406.44,406.44,406.44,406.44,406.44,406.44,406.44,406.44,406.44,406.44,406.44,418.88,418.88,418.88,418.88,418.88,418.88,418.88,418.88,418.88,418.88,436.05,436.05,436.05,425.98,425.98,415.33,415.33,415.33,383.94,367.36,367.36,363.22,358.48,358.48,340.71,335.38,335.38,326.50,321.17,321.17,320.58,320.58,319.40,318.80,318.80,318.21,317.62,317.62,317.62,317.62,317.62,317.62,317.62,317.62,317.62,317.62,318.21,318.21,318.80,318.80,319.40,319.40,319.40,319.40,319.40,319.99,319.99,319.99,319.99,319.99,319.99,319.40,319.40,319.40,319.40,319.40,319.40,318.80,318.80,318.80,318.21,318.21,318.21,318.21,318.21,318.21,318.21,318.21,318.21,318.21,318.80,319.40,320.58,320.58,321.17,329.46,335.38,347.82,347.82,358.48,367.36,372.69,372.69,383.94,400.52,415.33,415.33,415.33,425.98,436.05,436.05,436.05,418.88,418.88,418.88,418.88,406.44,418.88,418.88,418.88,418.88,418.88,418.88,436.05,436.05,436.05,436.05,436.05,425.98,425.98,425.98,425.98,425.98,425.98,425.98,425.98,425.98,425.98,425.98,425.98,425.98,425.98,425.98,425.98,425.98,425.98,425.98,425.98,425.98,436.05,436.05,436.05,436.05,436.05,436.05,436.05,436.05,436.05,436.05,436.05,436.05,425.98,425.98,425.98,425.98,425.98,425.98,425.98,425.98,425.98,425.98,425.98,425.98,425.98,425.98,425.98,425.98,425.98,425.98,425.98,425.98,425.98,425.98,425.98,425.98,425.98,425.98,425.98,425.98,425.98,425.98,425.98,425.98,425.98,425.98,425.98,425.98,425.98,425.98,425.98,425.98,425.98,436.05,425.98,425.98,425.98,425.98,425.98,425.98,425.98,425.98,425.98,425.98,425.98,425.98,425.98,425.98,425.98,425.98,436.05,436.05,436.05,436.05,436.05,436.05,436.05,436.05,436.05,436.05,436.05,436.05,436.05,436.05,436.05,436.05,436.05,436.05,436.05,436.05,436.05,436.05,436.05,436.05,436.05,436.05,436.05,436.05,436.05,436.05,436.05,436.05,436.05,436.05,436.05,425.98,425.98,425.98,425.98,425.98,425.98,425.98,425.98,425.98,425.98,425.98,425.98,425.98,425.98,425.98,425.98,420.06,420.06,420.06,420.06,420.06,420.06,420.06,420.06,420.06,420.06,420.06,420.06,420.06,420.06,420.06,420.06,420.06,420.06,420.06,420.06,420.06,400.52,400.52,383.94,367.36,367.36,363.22,358.48,358.48,351.96,347.82,347.82,340.71,337.75,337.75,337.75,337.75,335.38,335.38,335.38,332.42,332.42,332.42,332.42,329.46,329.46,329.46,329.46,329.46,329.46,329.46,329.46,329.46,329.46,329.46,327.69,329.46,329.46,329.46,329.46,332.42,332.42,332.42,332.42,332.42,332.42,332.42,332.42,335.38,335.38,335.38,335.38,335.38,335.38,335.38,335.38,335.38,335.38,335.38,335.38,335.38,335.38,335.38,335.38,335.38,335.38
327.09,327.09,327.09,327.69,327.09,327.69,327.09,327.09,328.28,327.09,327.69,327.69,328.28,327.69,328.28,328.87,330.05,344.86,367.36,389.86,402.89,403.48,402.89,402.89,402.89,402.30,402.30,401.71,401.71,401.71,401.71,401.11,401.71,401.11,401.11,401.11,400.52,400.52,398.75,398.75,398.15,397.56,396.97,395.78,394.60,394.60,394.60,393.42,393.42,393.42,393.42,393.42,393.42,393.42,393.42,393.42,393.42,393.42,393.42,393.42,393.42,393.42,393.42,393.42,393.42,393.42,406.44,406.44,406.44,406.44,406.44,406.44,406.44,406.44,406.44,406.44,406.44,406.44,406.44,406.44,418.88,418.88,418.88,418.88,418.88,418.88,418.88,418.88,418.88,418.88,436.05,436.05,425.98,420.06,420.06,415.33,383.94,383.94,372.69,363.22,363.22,351.96,340.71,340.71,335.38,332.42,332.42,322.36,321.17,320.58,320.58,320.58,319.40,318.80,318.80,318.21,317.62,317.62,317.62,317.62,317.62,317.62,317.62,317.62,318.21,318.21,318.21,318.80,319.40,319.40,319.40,319.40,319.99,319.99,319.99,319.99,319.99,319.99,319.99,319.99,319.99,319.40,319.40,319.40,319.40,319.40,319.40,318.80,318.80,318.80,318.21,318.21,318.21,318.21,318.21,318.21,318.21,318.21,318.21,318.21,318.80,319.40,320.58,320.58,321.17,329.46,335.38,347.82,347.82,358.48,367.36,372.69,372.69,383.94,400.52,415.33,415.33,420.06,425.98,436.05,436.05,436.05,418.88,418.88,418.88,406.44,406.44,406.44,418.88,418.88,418.88,418.88,418.88,418.88,436.05,436.05,436.05,436.05,436.05,436.05,436.05,425.98,425.98,425.98,425.98,425.98,425.98,425.98,425.98,425.98,425.98,425.98,425.98,425.98,425.98,425.98,425.98,425.98,425.98,436.05,436.05,436.05,436.05,436.05,436.05,436.05,436.05,436.05,436.05,436.05,436.05,425.98,425.98,425.98,425.98,425.98,425.98,425.98,425.98,425.98,425.98,425.98,425.98,425.98,425.98,425.98,425.98,425.98,425.98,436.05,436.05,436.05,436.05,436.05,436.05,436.05,425.98,425.98,425.98,425.98,436.05,425.98,425.98,425.98,425.98,425.98,425.98,425.98,425.98,436.05,436.05,436.05,436.05,436.05,436.05,425.98,425.98,436.05,436.05,436.05,436.05,436.05,436.05,436.05,436.05,436.05,436.05,436.05,436.05,436.05,436.05,436.05,436.05,436.05,436.05,436.05,436.05,436.05,436.05,436.05,436.05,436.05,436.05,436.05,436.05,436.05,436.05,436.05,436.05,436.05,436.05,436.05,436.05,436.05,436.05,436.05,436.05,436.05,436.05,436.05,436.05,436.05,436.05,436.05,436.05,436.05,425.98,425.98,425.98,425.98,425.98,425.98,425.98,425.98,425.98,425.98,425.98,425.98,425.98,425.98,420.06,420.06,420.06,420.06,420.06,420.06,420.06,420.06,420.06,420.06,420.06,420.06,420.06,420.06,420.06,415.33,415.33,415.33,415.33,415.33,400.52,383.94,383.94,372.69,367.36,367.36,358.48,351.96,351.96,347.82,340.71,340.71,337.75,337.75,335.38,335.38,335.38,335.38,335.38,335.38,332.42,332.42,332.42,332.42,329.46,329.46,329.46,329.46,329.46,329.46,329.46,329.46,329.46,329.46,329.46,329.46,329.46,329.46,329.46,329.46,332.42,332.42,332.42,332.42,332.42,332.42,332.42,332.42,335.38,335.38,335.38,335.38,335.38,335.38,335.38,335.38,335.38,335.38,335.38,335.38,335.38,335.38,335.38,335.38,335.38,335.38
327.09,327.09,327.09,327.09,327.09,327.09,327.69,327.09,327.69,327.69,327.09,327.69,327.09,328.28,327.69,328.28,328.87,334.20,362.03,380.39,400.52,404.07,404.07,403.48,403.48,403.48,402.89,402.89,402.89,402.30,402.89,402.30,402.30,401.71,401.71,402.30,401.71,402.30,401.71,401.71,402.30,402.30,401.11,401.11,399.93,398.75,398.15,397.56,396.97,393.42,393.42,393.42,393.42,393.42,393.42,393.42,393.42,393.42,393.42,393.42,393.42,393.42,393.42,393.42,393.42,393.42,406.44,406.44,406.44,406.44,406.44,406.44,406.44,406.44,406.44,406.44,406.44,406.44,406.44,406.44,418.88,418.88,418.88,418.88,418.88,418.88,418.88,418.88,418.88,418.88,436.05,436.05,425.98,420.06,420.06,415.33,383.94,383.94,372.69,363.22,363.22,351.96,340.71,340.71,335.38,332.42,332.42,322.36,322.36,320.58,320.58,320.58,319.40,318.80,318.80,318.21,317.62,317.62,317.62,317.62,317.62,317.62,317.62,317.62,318.21,318.21,318.21,318.80,319.40,319.40,319.40,319.40,319.99,319.99,319.99,319.99,319.99,319.99,319.99,319.99,319.99,319.40,319.40,319.40,319.40,319.40,318.80,318.80,318.80,318.21,318.21,318.21,318.21,318.21,318.21,318.21,318.21,318.21,318.21,318.21,318.80,319.40,320.58,320.58,321.17,329.46,335.38,347.82,347.82,358.48,367.36,372.69,372.69,383.94,400.52,415.33,415.33,420.06,425.98,436.05,436.05,436.05,418.88,418.88,418.88,406.44,406.44,406.44,418.88,418.88,418.88,418.88,418.88,418.88,436.05,436.05,436.05,436.05,436.05,436.05,436.05,425.98,425.98,425.98,425.98,425.98,425.98,425.98,425.98,425.98,425.98,425.98,425.98,425.98,425.98,425.98,425.98,425.98,425.98,436.05,436.05,436.05,436.05,436.05,436.05,436.05,436.05,436.05,436.05,436.05,436.05,425.98,425.98,425.98,425.98,425.98,425.98,425.98,425.98,425.98,425.98,425.98,425.98,425.98,425.98,425.98,425.98,425.98,425.98,436.05,436.05,436.05,436.05,436.05,436.05,436.05,425.98,425.98,425.98,425.98,436.05,425.98,425.98,425.98,425.98,425.98,425.98,425.98,425.98,436.05,436.05,436.05,436.05,436.05,436.05,425.98,425.98,436.05,436.05,436.05,436.05,436.05,436.05,436.05,436.05,436.05,436.05,436.05,436.05,436.05,436.05,436.05,436.05,436.05,436.05,436.05,436.05,436.05,436.05,436.05,436.05,436.05,436.05,436.05,436.05,436.05,436.05,436.05,436.05,436.05,436.05,436.05,436.05,436.05,436.05,436.05,436.05,436.05,436.05,436.05,436.05,436.05,436.05,436.05,436.05,436.05,425.98,425.98,425.98,425.98,425.98,425.98,425.98,425.98,425.98,425.98,425.98,425.98,425.98,425.98,420.06,420.06,420.06,420.06,420.06,420.06,420.06,420.06,420.06,420.06,420.06,415.33,415.33,415.33,415.33,415.33,415.33,400.52,400.52,400.52,383.94,372.69,372.69,367.36,363.22,363.22,358.48,351.96,351.96,347.82,340.71,340.71,337.75,337.75,335.38,335.38,335.38,335.38,335.38,335.38,332.42,332.42,332.42,332.42,332.42,332.42,332.42,332.42,332.42,329.46,329.46,329.46,329.46,329.46,332.42,332.42,331.83,332.42,335.38,335.38,332.42,332.42,332.42,332.42,332.42,335.38,335.38,335.38,335.38,335.38,335.38,335.38,337.75,337.75,337.75,337.75,337.75,337.75,337.75,337.75,337.75,337.75,337.75,337.75,337.75,335.38
327.09,327.09,327.09,327.09,327.69,327.09,327.09,327.69,327.09,327.69,327.69,327.69,327.69,327.69,328.28,327.69,328.28,333.02,349.60,372.69,395.19,404.67,405.26,404.67,404.07,403.48,404.07,404.07,402.89,403.48,402.89,402.89,402.89,402.89,402.89,402.89,402.89,402.89,403.48,403.48,403.48,403.48,403.48,404.07,404.07,404.67,406.44,406.44,393.42,393.42,393.42,393.42,393.42,393.42,393.42,393.42,393.42,393.42,393.42,393.42,393.42,393.42,393.42,393.42,406.44,406.44,406.44,406.44,406.44,406.44,406.44,406.44,406.44,406.44,406.44,406.44,406.44,406.44,406.44,406.44,418.88,418.88,418.88,418.88,418.88,418.88,418.88,418.88,418.88,418.88,436.05,436.05,425.98,415.33,415.33,400.52,383.94,383.94,367.36,358.48,358.48,347.82,340.71,340.71,335.38,329.46,329.46,322.36,321.17,320.58,320.58,320.58,319.40,319.40,319.40,318.21,317.62,317.62,317.62,317.62,317.62,317.62,317.62,317.62,318.21,318.21,318.21,318.80,319.40,319.40,319.40,319.40,319.99,319.99,319.99,319.99,319.99,320.58,320.58,319.99,319.99,319.40,319.40,319.40,318.80,318.80,318.80,318.21,318.21,318.21,318.21,318.21,317.62,317.62,317.62,317.62,317.62,318.21,318.21,318.21,318.80,319.40,320.58,320.58,321.17,335.38,335.38,347.82,347.82,358.48,367.36,372.69,372.69,383.94,400.52,415.33,415.33,420.06,425.98,436.05,436.05,436.05,418.88,418.88,418.88,406.44,406.44,406.44,406.44,406.44,418.88,418.88,418.88,418.88,418.88,436.05,436.05,436.05,436.05,436.05,436.05,436.05,436.05,436.05,436.05,425.98,425.98,425.98,425.98,425.98,425.98,425.98,425.98,425.98,425.98,425.98,436.05,436.05,436.05,436.05,436.05,436.05,436.05,436.05,436.05,436.05,436.05,436.05,436.05,436.05,436.05,436.05,436.05,436.05,436.05,425.98,425.98,425.98,425.98,425.98,425.98,425.98,425.98,425.98,425.98,425.98,425.98,436.05,436.05,436.05,436.05,436.05,436.05,436.05,436.05,436.05,436.05,436.05,436.05,436.05,436.05,436.05,436.05,436.05,436.05,436.05,436.05,436.05,436.05,436.05,436.05,436.05,436.05,436.05,436.05,436.05,436.05,436.05,436.05,436.05,436.05,436.05,436.05,436.05,436.05,436.05,436.05,436.05,436.05,436.05,436.05,436.05,436.05,436.05,436.05,436.05,436.05,436.05,436.05,436.05,436.05,436.05,436.05,436.05,436.05,436.05,436.05,436.05,436.05,436.05,436.05,436.05,436.05,436.05,436.05,436.05,436.05,436.05,436.05,436.05,436.05,436.05,436.05,436.05,436.05,436.05,436.05,425.98,425.98,425.98,425.98,425.98,425.98,425.98,425.98,425.98,425.98,425.98,425.98,425.98,425.98,420.06,420.06,420.06,420.06,420.06,420.06,420.06,420.06,420.06,415.33,415.33,415.33,415.33,400.52,400.52,400.52,383.94,372.69,372.69,372.69,367.36,367.36,358.48,358.48,358.48,351.96,347.82,347.82,340.71,340.71,340.71,337.75,335.38,335.38,335.38,335.38,335.38,335.38,335.38,335.38,335.38,332.42,332.42,332.42,332.42,332.42,332.42,332.42,332.42,332.42,332.42,332.42,332.42,332.42,332.42,335.38,335.38,335.38,335.38,335.38,335.38,335.38,335.38,335.38,335.38,335.38,335.38,337.75,337.75,337.75,337.75,337.75,337.75,337.75,337.75,340.71,340.71,340.71,340.71,340.71,340.71,337.75,337.75,337.75,337.75
327.09,327.09,327.69,327.09,327.09,327.69,327.09,327.09,327.69,327.09,327.69,327.09,328.28,327.69,327.09,328.28,328.28,329.46,340.12,369.14,388.68,405.26,405.26,405.26,404.67,404.67,404.67,404.07,404.07,404.07,404.07,404.07,404.07,404.07,404.07,404.07,404.07,404.07,404.07,404.67,404.07,404.67,404.67,404.67,405.26,406.44,406.44,406.44,393.42,393.42,393.42,393.42,393.42,393.42,393.42,393.42,393.42,393.42,393.42,393.42,393.42,393.42,393.42,406.44,406.44,406.44,406.44,406.44,406.44,406.44,406.44,406.44,418.88,418.88,418.88,418.88,418.88,418.88,406.44,406.44,406.44,406.44,406.44,406.44,418.88,418.88,418.88,418.88,418.88,418.88,436.05,436.05,425.98,415.33,415.33,400.52,383.94,383.94,367.36,358.48,358.48,347.82,340.71,340.71,335.38,329.46,329.46,322.36,321.17,321.17,320.58,320.58,319.40,319.40,319.40,318.21,317.62,317.62,317.62,317.62,317.62,317.62,317.62,317.62,318.21,318.21,318.21,318.80,319.40,319.40,319.40,319.99,319.99,319.99,319.99,319.99,319.99,320.58,320.58,319.99,319.99,319.40,319.40,319.40,318.80,318.80,318.21,318.21,318.21,318.21,317.62,317.62,317.62,317.62,317.62,317.62,317.62,318.21,318.21,318.21,318.80,319.40,320.58,320.58,322.36,333.02,347.82,347.82,347.82,358.48,372.69,372.69,372.69,383.94,400.52,415.33,415.33,420.06,425.98,436.05,436.05,436.05,418.88,418.88,418.88,406.44,406.44,406.44,406.44,406.44,418.88,418.88,418.88,418.88,418.88,418.88,418.88,418.88,436.05,436.05,436.05,436.05,436.05,436.05,436.05,436.05,436.05,436.05,425.98,425.98,425.98,425.98,425.98,425.98,425.98,436.05,436.05,436.05,436.05,436.05,436.05,436.05,436.05,436.05,436.05,436.05,436.05,436.05,436.05,436.05,436.05,436.05,436.05,436.05,436.05,436.05,436.05,436.05,425.98,425.98,425.98,425.98,436.05,436.05,436.05,436.05,436.05,436.05,436.05,436.05,436.05,436.05,436.05,436.05,436.05,436.05,436.05,436.05,436.05,436.05,436.05,436.05,436.05,436.05,436.05,436.05,436.05,436.05,436.05,436.05,436.05,436.05,436.05,436.05,436.05,436.05,436.05,436.05,436.05,436.05,436.05,436.05,436.05,436.05,436.05,436.05,436.05,436.05,436.05,436.05,436.05,436.05,436.05,436.05,436.05,436.05,418.88,418.88,418.88,418.88,436.05,436.05,436.05,436.05,436.05,436.05,436.05,436.05,436.05,436.05,436.05,436.05,436.05,436.05,436.05,436.05,436.05,436.05,436.05,436.05,436.05,436.05,436.05,436.05,436.05,436.05,436.05,436.05,436.05,436.05,425.98,425.98,425.98,425.98,425.98,425.98,425.98,425.98,425.98,425.98,425.98,420.06,420.06,420.06,420.06,420.06,420.06,420.06,420.06,420.06,415.33,415.33,415.33,415.33,400.52,400.52,400.52,383.94,372.69,372.69,372.69,367.36,367.36,358.48,358.48,358.48,351.96,347.82,347.82,340.71,340.71,340.71,337.75,335.38,335.38,335.38,335.38,335.38,335.38,335.38,335.38,335.38,335.38,332.42,332.42,332.42,332.42,332.42,332.42,332.42,332.42,332.42,335.38,335.38,335.38,333.61,335.38,335.38,335.38,335.38,335.38,335.38,335.38,335.38,335.38,337.75,337.75,337.75,337.75,340.71,340.71,340.71,340.71,340.71,340.71,340.71,340.71,340.71,340.71,340.71,340.71,340.71,340.71,340.71,340.71,340.71
327.09,327.09,327.09,327.09,327.09,327.09,327.69,327.09,327.09,327.69,328.28,327.09,327.69,328.28,327.09,328.28,327.69,328.87,333.61,358.48,383.94,402.89,406.44,405.85,405.26,405.26,404.67,405.26,404.67,404.67,404.67,404.67,404.67,404.67,404.67,404.67,404.67,405.26,405.26,405.26,405.26,405.26,405.26,405.85,405.85,406.44,406.44,406.44,393.42,393.42,393.42,393.42,393.42,393.42,393.42,393.42,393.42,393.42,393.42,393.42,393.42,393.42,393.42,406.44,406.44,406.44,406.44,406.44,406.44,406.44,406.44,406.44,418.88,418.88,418.88,418.88,418.88,418.88,406.44,406.44,406.44,406.44,406.44,406.44,406.44,406.44,406.44,418.88,418.88,418.88,436.05,436.05,425.98,415.33,415.33,400.52,383.94,383.94,367.36,358.48,358.48,347.82,340.71,340.71,335.38,329.46,329.46,322.36,321.17,321.17,320.58,320.58,319.40,319.40,319.40,318.21,317.62,317.62,317.62,317.62,317.62,317.62,317.62,317.62,318.21,318.21,318.80,318.80,319.40,319.40,319.40,319.99,320.58,320.58,320.58,320.58,320.58,320.58,320.58,319.99,319.99,319.99,319.40,319.40,318.80,318.80,318.21,318.21,318.21,318.21,317.62,317.62,317.62,317.62,317.62,317.62,317.62,318.21,318.21,318.21,319.40,319.40,320.58,320.58,322.36,333.61,347.82,347.82,347.82,363.22,372.69,383.94,383.94,383.94,400.52,415.33,415.33,420.06,425.98,436.05,436.05,436.05,418.88,418.88,418.88,406.44,406.44,406.44,406.44,406.44,406.44,406.44,406.44,406.44,418.88,418.88,418.88,418.88,418.88,418.88,436.05,436.05,436.05,436.05,436.05,436.05,436.05,436.05,436.05,436.05,436.05,425.98,425.98,436.05,436.05,436.05,436.05,436.05,436.05,436.05,436.05,436.05,436.05,436.05,436.05,436.05,436.05,436.05,436.05,436.05,436.05,436.05,436.05,436.05,436.05,436.05,436.05,436.05,425.98,425.98,425.98,425.98,436.05,436.05,436.05,436.05,436.05,436.05,436.05,436.05,436.05,436.05,436.05,436.05,436.05,436.05,436.05,436.05,436.05,436.05,436.05,436.05,436.05,436.05,436.05,436.05,436.05,436.05,436.05,436.05,436.05,436.05,436.05,436.05,436.05,436.05,436.05,436.05,436.05,436.05,436.05,436.05,436.05,436.05,436.05,436.05,436.05,436.05,436.05,436.05,436.05,436.05,436.05,436.05,436.05,436.05,418.88,418.88,418.88,418.88,436.05,436.05,436.05,436.05,436.05,436.05,436.05,436.05,436.05,436.05,436.05,436.05,425.98,425.98,436.05,436.05,436.05,436.05,436.05,436.05,436.05,436.05,436.05,436.05,436.05,436.05,436.05,436.05,436.05,436.05,425.98,425.98,425.98,425.98,425.98,425.98,425.98,425.98,425.98,425.98,425.98,420.06,420.06,420.06,420.06,420.06,420.06,420.06,415.33,415.33,415.33,415.33,415.33,400.52,400.52,400.52,383.94,372.69,372.69,367.36,367.36,358.48,358.48,358.48,351.96,351.96,347.82,340.71,340.71,340.71,337.75,337.75,337.75,335.38,335.38,335.38,335.38,335.38,335.38,335.38,335.38,335.38,335.38,332.42,332.42,332.42,332.42,332.42,332.42,332.42,332.42,332.42,335.38,335.38,335.38,335.38,335.38,335.38,335.38,335.38,335.38,335.38,335.38,335.38,335.38,337.75,337.75,337.75,337.75,340.71,340.71,340.71,340.71,340.71,340.71,340.71,340.71,340.71,340.71,340.71,340.71,340.71,340.71,340.71,340.71,340.71
327.09,327.09,327.09,327.09,328.28,327.09,327.09,327.69,327.69,327.09,327.09,327.69,327.09,327.09,328.28,327.09,327.69,328.28,333.02,350.78,373.87,398.15,407.63,407.04,406.44,405.26,405.26,404.67,404.67,404.67,404.67,404.67,405.26,405.26,404.67,405.85,405.26,405.26,405.85,405.85,405.85,405.85,406.44,406.44,406.44,406.44,406.44,406.44,406.44,406.44,393.42,393.42,393.42,393.42,393.42,393.42,393.42,393.42,393.42,393.42,393.42,393.42,406.44,406.44,406.44,406.44,406.44,406.44,406.44,418.88,418.88,418.88,418.88,418.88,418.88,418.88,418.88,418.88,406.44,406.44,406.44,406.44,406.44,406.44,406.44,406.44,406.44,418.88,418.88,418.88,436.05,436.05,425.98,415.33,415.33,400.52,383.94,383.94,367.36,358.48,358.48,347.82,340.71,340.71,335.38,329.46,329.46,322.36,321.17,321.17,320.58,320.58,319.40,319.40,319.40,318.21,317.62,317.62,317.62,317.62,317.62,317.62,317.62,317.62,318.21,318.21,318.80,318.80,319.40,319.40,319.40,319.99,320.58,320.58,320.58,320.58,320.58,320.58,320.58,319.99,319.99,319.40,319.40,319.40,318.80,318.80,318.21,318.21,318.21,318.21,317.62,317.62,317.62,317.62,317.62,317.62,317.62,318.21,318.21,318.21,319.40,319.40,320.58,320.58,322.36,337.75,337.75,347.82,347.82,363.22,372.69,383.94,383.94,383.94,400.52,415.33,415.33,420.06,425.98,436.05,436.05,436.05,418.88,418.88,418.88,418.88,406.44,406.44,406.44,406.44,406.44,406.44,406.44,406.44,418.88,418.88,418.88,418.88,418.88,418.88,436.05,436.05,436.05,436.05,436.05,436.05,436.05,436.05,436.05,436.05,436.05,425.98,425.98,436.05,436.05,436.05,436.05,436.05,436.05,436.05,436.05,436.05,436.05,436.05,436.05,436.05,436.05,436.05,436.05,436.05,436.05,436.05,436.05,436.05,436.05,436.05,436.05,436.05,436.05,436.05,436.05,436.05,436.05,436.05,436.05,436.05,436.05,436.05,436.05,436.05,418.88,418.88,418.88,418.88,418.88,418.88,418.88,418.88,436.05,436.05,436.05,436.05,436.05,436.05,436.05,436.05,436.05,436.05,436.05,436.05,436.05,436.05,436.05,436.05,436.05,436.05,436.05,436.05,436.05,436.05,436.05,436.05,436.05,436.05,436.05,436.05,436.05,436.05,436.05,436.05,436.05,418.88,418.88,418.88,418.88,418.88,418.88,418.88,418.88,418.88,436.05,436.05,436.05,436.05,436.05,436.05,436.05,436.05,436.05,436.05,436.05,436.05,425.98,425.98,425.98,436.05,436.05,436.05,436.05,436.05,436.05,436.05,436.05,436.05,436.05,436.05,436.05,436.05,436.05,436.05,436.05,436.05,436.05,436.05,425.98,425.98,425.98,425.98,425.98,425.98,425.98,425.98,425.98,420.06,420.06,420.06,420.06,420.06,415.33,415.33,415.33,400.52,400.52,400.52,383.94,383.94,372.69,367.36,367.36,367.36,363.22,358.48,358.48,351.96,347.82,347.82,347.82,340.71,340.71,337.75,337.75,337.75,337.75,335.38,335.38,335.38,335.38,335.38,335.38,335.38,335.38,335.38,335.38,332.42,332.42,335.38,335.38,335.38,335.38,335.38,335.38,335.38,335.38,335.38,335.38,335.38,335.38,337.75,337.75,337.75,337.75,337.75,337.75,337.75,337.75,337.75,337.75,337.75,340.71,340.71,340.71,340.71,340.71,340.71,340.71,347.82,347.82,347.82,347.82,347.82,347.82,347.82,347.82,347.82,347.82,340.71
327.09,328.28,327.09,327.09,327.09,327.09,327.69,327.09,327.09,327.69,327.69,327.09,328.28,327.09,327.09,328.28,327.69,328.28,329.46,341.90,373.87,396.97,408.22,408.22,407.04,406.44,405.85,405.26,405.26,404.67,404.67,404.67,404.67,405.26,405.26,405.26,405.26,405.85,405.85,405.85,405.85,406.44,406.44,406.44,406.44,406.44,406.44,406.44,406.44,406.44,406.44,393.42,406.44,406.44,393.42,406.44,406.44,393.42,393.42,393.42,406.44,406.44,406.44,406.44,406.44,406.44,406.44,406.44,406.44,418.88,418.88,418.88,418.88,418.88,418.88,418.88,418.88,418.88,406.44,406.44,406.44,406.44,406.44,406.44,406.44,406.44,406.44,418.88,418.88,418.88,436.05,436.05,425.98,415.33,415.33,415.33,383.94,383.94,367.36,358.48,358.48,351.96,340.71,340.71,335.38,332.42,332.42,326.50,321.17,321.17,320.58,320.58,319.40,319.40,319.40,318.80,318.21,318.21,317.62,317.62,317.62,317.62,317.62,317.62,318.21,318.21,318.80,319.40,319.40,319.40,319.40,319.99,320.58,320.58,320.58,320.58,320.58,320.58,320.58,319.99,319.40,319.40,319.40,318.80,318.21,318.21,318.21,317.62,317.62,317.62,317.62,317.62,317.62,317.62,317.62,317.62,317.62,318.21,318.21,318.21,319.40,319.40,320.58,320.58,322.36,332.42,337.75,347.82,347.82,363.22,372.69,383.94,383.94,383.94,400.52,415.33,415.33,420.06,425.98,425.98,425.98,436.05,436.05,436.05,418.88,418.88,418.88,418.88,406.44,406.44,406.44,406.44,406.44,406.44,406.44,406.44,406.44,418.88,418.88,418.88,418.88,418.88,418.88,436.05,436.05,436.05,436.05,436.05,436.05,436.05,436.05,436.05,436.05,436.05,436.05,436.05,436.05,436.05,436.05,436.05,436.05,436.05,436.05,436.05,436.05,436.05,418.88,418.88,418.88,418.88,418.88,436.05,436.05,436.05,436.05,436.05,436.05,436.05,436.05,436.05,436.05,436.05,436.05,436.05,436.05,436.05,436.05,436.05,436.05,418.88,418.88,418.88,418.88,418.88,418.88,418.88,418.88,418.88,418.88,418.88,418.88,418.88,418.88,418.88,418.88,418.88,418.88,418.88,436.05,436.05,436.05,436.05,436.05,436.05,436.05,436.05,436.05,436.05,436.05,436.05,436.05,436.05,436.05,436.05,436.05,436.05,436.05,436.05,436.05,436.05,418.88,418.88,418.88,418.88,418.88,418.88,418.88,418.88,418.88,418.88,436.05,436.05,436.05,436.05,436.05,436.05,436.05,436.05,436.05,436.05,436.05,436.05,425.98,425.98,425.98,436.05,436.05,436.05,436.05,436.05,436.05,436.05,436.05,436.05,436.05,436.05,436.05,436.05,436.05,436.05,436.05,436.05,436.05,436.05,436.05,436.05,436.05,425.98,425.98,425.98,425.98,425.98,425.98,425.98,420.06,420.06,420.06,420.06,415.33,415.33,415.33,400.52,400.52,400.52,383.94,383.94,372.69,367.36,367.36,367.36,363.22,358.48,358.48,351.96,347.82,347.82,347.82,340.71,340.71,337.75,337.75,337.75,337.75,335.38,335.38,335.38,335.38,335.38,335.38,335.38,335.38,335.38,335.38,335.38,335.38,335.38,335.38,335.38,335.38,335.38,335.38,335.38,335.38,335.38,337.75,337.75,337.75,337.75,337.75,340.71,340.71,340.71,340.71,340.71,340.71,340.71,340.71,340.71,340.71,347.82,347.82,347.82,347.82,347.82,347.82,347.82,347.82,347.82,347.82,347.82,347.82,347.82,347.82,347.82,347.82,347.82
327.09,327.69,326.50,327.09,327.69,327.09,326.50,326.50,327.69,327.09,327.09,327.69,326.50,328.28,327.09,327.09,328.28,327.69,328.87,334.20,368.55,388.68,408.22,409.40,408.22,407.04,406.44,405.26,405.26,404.67,404.67,404.67,404.67,404.67,405.26,405.26,405.26,405.26,405.85,405.85,405.85,406.44,406.44,405.85,406.44,406.44,406.44,406.44,406.44,406.44,406.44,406.44,406.44,406.44,406.44,406.44,406.44,406.44,406.44,406.44,406.44,406.44,406.44,406.44,406.44,406.44,406.44,406.44,406.44,406.44,406.44,406.44,418.88,418.88,418.88,418.88,418.88,418.88,406.44,406.44,406.44,406.44,406.44,406.44,406.44,406.44,406.44,418.88,418.88,418.88,436.05,436.05,425.98,420.06,420.06,415.33,383.94,383.94,372.69,363.22,363.22,358.48,347.82,347.82,340.71,335.38,335.38,329.46,321.17,321.17,320.58,320.58,320.58,319.40,319.40,318.80,318.21,318.21,317.62,317.62,317.62,317.62,317.62,317.62,318.21,318.21,318.80,319.40,319.40,319.40,319.40,319.99,320.58,320.58,320.58,320.58,320.58,320.58,320.58,319.99,319.40,319.40,319.40,318.80,318.21,318.21,318.21,317.62,317.62,317.62,317.62,317.62,317.62,317.62,317.62,317.62,317.62,318.21,318.21,318.21,319.40,319.99,320.58,320.58,322.36,332.42,337.75,347.82,347.82,363.22,383.94,383.94,383.94,400.52,400.52,415.33,415.33,420.06,425.98,425.98,425.98,436.05,436.05,436.05,418.88,418.88,418.88,418.88,406.44,406.44,406.44,406.44,406.44,406.44,406.44,406.44,406.44,406.44,418.88,418.88,418.88,418.88,418.88,418.88,418.88,436.05,436.05,436.05,436.05,436.05,436.05,436.05,436.05,436.05,436.05,436.05,436.05,436.05,436.05,436.05,436.05,436.05,436.05,436.05,436.05,436.05,418.88,418.88,418.88,418.88,418.88,418.88,418.88,418.88,436.05,436.05,436.05,436.05,436.05,436.05,436.05,436.05,436.05,436.05,436.05,436.05,418.88,418.88,418.88,418.88,418.88,418.88,418.88,418.88,418.88,418.88,418.88,418.88,418.88,418.88,418.88,418.88,418.88,418.88,418.88,418.88,418.88,418.88,418.88,436.05,436.05,436.05,436.05,436.05,436.05,436.05,436.05,436.05,436.05,436.05,418.88,418.88,418.88,418.88,418.88,418.88,418.88,418.88,418.88,418.88,418.88,418.88,418.88,418.88,418.88,418.88,418.88,418.88,418.88,418.88,436.05,436.05,436.05,436.05,436.05,436.05,436.05,436.05,436.05,436.05,436.05,436.05,436.05,436.05,436.05,436.05,436.05,436.05,436.05,436.05,436.05,436.05,436.05,436.05,436.05,436.05,436.05,436.05,436.05,436.05,436.05,436.05,436.05,436.05,436.05,436.05,436.05,425.98,425.98,425.98,425.98,425.98,425.98,425.98,420.06,420.06,420.06,420.06,415.33,415.33,415.33,400.52,400.52,383.94,372.69,372.69,367.36,363.22,363.22,358.48,358.48,358.48,351.96,347.82,347.82,347.82,340.71,340.71,340.71,337.75,337.75,337.75,335.38,335.38,335.38,335.38,335.38,335.38,335.38,335.38,335.38,335.38,335.38,335.38,335.38,335.38,335.38,335.38,335.38,335.38,335.38,335.38,335.38,335.38,337.75,337.75,337.75,337.75,337.75,340.71,340.71,340.71,340.71,340.71,340.71,340.71,340.71,340.71,340.71,347.82,347.82,347.82,347.82,347.82,347.82,347.82,347.82,347.82,347.82,347.82,347.82,347.82,347.82,347.82,347.82,347.82
327.09,327.09,327.09,327.69,326.50,326.50,327.09,327.69,326.50,327.09,327.69,326.50,327.69,326.50,327.69,327.09,327.69,327.09,328.28,333.61,354.33,381.57,411.18,412.36,410.00,408.22,407.04,405.85,405.26,405.26,404.67,404.07,404.67,404.67,404.67,404.67,404.67,405.26,405.26,405.26,405.85,405.85,405.85,407.04,406.44,406.44,406.44,406.44,406.44,406.44,406.44,406.44,406.44,406.44,406.44,406.44,406.44,406.44,406.44,406.44,406.44,406.44,406.44,406.44,406.44,406.44,406.44,406.44,406.44,406.44,406.44,406.44,418.88,418.88,418.88,418.88,418.88,418.88,406.44,406.44,406.44,406.44,406.44,406.44,406.44,406.44,406.44,418.88,418.88,418.88,436.05,436.05,425.98,420.06,420.06,415.33,383.94,383.94,372.69,363.22,363.22,358.48,347.82,347.82,340.71,335.38,335.38,329.46,321.17,321.17,320.58,320.58,319.99,319.40,319.40,318.80,318.21,318.21,317.62,317.62,317.62,317.62,317.62,317.62,318.21,318.21,318.80,318.80,319.40,319.40,319.40,319.99,320.58,320.58,320.58,320.58,320.58,320.58,320.58,319.99,319.40,319.40,319.40,318.80,318.21,318.21,317.62,317.62,317.62,317.62,317.62,317.62,317.62,317.62,317.62,317.62,317.62,318.21,318.21,318.21,319.40,319.99,320.58,320.58,322.36,332.42,337.75,347.82,347.82,363.22,383.94,383.94,383.94,400.52,400.52,415.33,415.33,420.06,425.98,425.98,425.98,436.05,436.05,436.05,418.88,418.88,418.88,418.88,406.44,406.44,406.44,406.44,406.44,406.44,406.44,406.44,406.44,406.44,418.88,418.88,418.88,418.88,418.88,418.88,418.88,436.05,436.05,436.05,436.05,436.05,436.05,436.05,436.05,436.05,436.05,436.05,436.05,436.05,436.05,436.05,436.05,436.05,436.05,436.05,436.05,436.05,418.88,418.88,418.88,418.88,418.88,418.88,418.88,418.88,436.05,436.05,436.05,436.05,436.05,436.05,436.05,436.05,436.05,436.05,436.05,436.05,418.88,418.88,418.88,418.88,418.88,418.88,418.88,418.88,418.88,418.88,418.88,418.88,418.88,418.88,418.88,418.88,418.88,418.88,418.88,418.88,418.88,418.88,418.88,436.05,436.05,436.05,436.05,436.05,436.05,436.05,436.05,436.05,436.05,436.05,418.88,418.88,418.88,418.88,418.88,418.88,418.88,418.88,418.88,418.88,418.88,418.88,418.88,418.88,418.88,418.88,418.88,418.88,418.88,436.05,436.05,436.05,436.05,436.05,436.05,436.05,436.05,436.05,436.05,436.05,436.05,436.05,436.05,425.98,425.98,425.98,425.98,436.05,436.05,436.05,436.05,436.05,436.05,436.05,436.05,436.05,436.05,436.05,436.05,436.05,436.05,436.05,436.05,436.05,436.05,436.05,436.05,436.05,425.98,425.98,425.98,425.98,425.98,425.98,420.06,420.06,420.06,420.06,415.33,415.33,400.52,383.94,383.94,372.69,367.36,367.36,363.22,358.48,358.48,351.96,351.96,351.96,347.82,347.82,340.71,340.71,340.71,337.75,337.75,337.75,337.75,337.75,335.38,335.38,335.38,335.38,335.38,335.38,335.38,335.38,335.38,335.38,335.38,335.38,335.38,335.38,335.38,335.38,335.38,335.38,335.38,337.75,337.75,337.75,337.75,337.75,337.75,340.71,340.71,340.71,340.71,340.71,340.71,340.71,340.71,340.71,340.71,340.71,347.82,347.82,347.82,347.82,351.96,351.96,351.96,351.96,351.96,351.96,351.96,351.96,351.96,351.96,351.96,351.96,351.96,351.96
327.69,326.50,326.50,326.50,326.50,327.69,327.09,326.50,327.09,327.09,326.50,327.09,326.50,327.69,326.50,327.69,327.09,327.69,327.69,329.46,350.78,385.13,407.63,417.10,414.14,410.59,408.22,406.44,405.26,405.26,404.67,404.67,404.07,404.07,404.07,404.07,404.67,404.67,404.67,405.26,405.26,405.26,405.85,405.85,406.44,406.44,406.44,406.44,406.44,406.44,406.44,406.44,406.44,406.44,406.44,406.44,406.44,406.44,406.44,406.44,406.44,406.44,406.44,406.44,406.44,406.44,406.44,406.44,406.44,406.44,406.44,406.44,406.44,418.88,418.88,418.88,418.88,406.44,406.44,406.44,406.44,406.44,406.44,406.44,406.44,406.44,406.44,406.44,406.44,418.88,436.05,436.05,436.05,420.06,420.06,415.33,400.52,400.52,383.94,367.36,367.36,363.22,351.96,351.96,347.82,337.75,337.75,332.42,322.36,322.36,320.58,320.58,319.99,319.40,319.40,319.40,318.80,318.21,318.21,317.62,317.62,317.62,317.62,317.62,318.21,318.21,318.80,318.80,319.40,319.40,319.40,319.99,320.58,320.58,320.58,320.58,320.58,320.58,320.58,319.99,319.40,319.40,319.40,318.80,318.21,318.21,317.62,317.62,317.62,317.62,317.62,317.62,317.62,317.62,317.62,317.62,317.62,318.21,318.80,318.80,319.40,319.99,321.17,326.50,326.50,332.42,340.71,351.96,351.96,363.22,383.94,383.94,383.94,400.52,415.33,415.33,415.33,420.06,425.98,425.98,425.98,436.05,436.05,436.05,436.05,418.88,418.88,418.88,418.88,406.44,406.44,406.44,406.44,406.44,406.44,406.44,406.44,406.44,406.44,406.44,418.88,418.88,418.88,418.88,418.88,436.05,436.05,436.05,436.05,436.05,436.05,436.05,436.05,436.05,436.05,436.05,436.05,436.05,436.05,436.05,436.05,436.05,436.05,436.05,436.05,418.88,418.88,418.88,418.88,418.88,418.88,418.88,418.88,418.88,418.88,418.88,418.88,418.88,436.05,436.05,436.05,436.05,418.88,418.88,418.88,418.88,418.88,418.88,418.88,418.88,418.88,418.88,418.88,418.88,418.88,418.88,418.88,406.44,418.88,418.88,418.88,418.88,418.88,418.88,418.88,418.88,418.88,418.88,418.88,418.88,418.88,418.88,436.05,436.05,436.05,436.05,436.05,436.05,436.05,418.88,418.88,418.88,418.88,418.88,418.88,418.88,418.88,418.88,418.88,418.88,418.88,418.88,418.88,418.88,418.88,418.88,436.05,436.05,436.05,436.05,436.05,436.05,436.05,436.05,436.05,436.05,436.05,436.05,436.05,436.05,436.05,436.05,436.05,425.98,425.98,425.98,425.98,425.98,436.05,436.05,436.05,436.05,436.05,436.05,436.05,436.05,436.05,436.05,436.05,436.05,436.05,436.05,436.05,436.05,436.05,436.05,436.05,436.05,425.98,425.98,425.98,425.98,425.98,425.98,420.06,420.06,420.06,415.33,400.52,400.52,383.94,372.69,372.69,367.36,363.22,363.22,358.48,351.96,351.96,347.82,347.82,347.82,340.71,340.71,340.71,337.75,337.75,337.75,337.75,337.75,337.75,337.75,335.38,335.38,335.38,335.38,335.38,335.38,335.38,335.38,335.38,335.38,335.38,335.38,335.38,335.38,335.38,337.75,337.75,337.75,337.75,337.75,340.71,340.71,340.71,340.71,340.71,340.71,340.71,340.71,340.71,340.71,340.71,340.71,347.82,347.82,347.82,347.82,347.82,351.96,351.96,351.96,351.96,351.96,351.96,358.48,358.48,358.48,358.48,358.48,358.48,358.48,358.48,358.48,358.48,351.96
326.50,327.09,326.50,327.69,327.09,326.50,327.09,326.50,327.69,326.50,327.69,326.50,327.69,326.50,327.69,327.09,328.28,327.09,327.69,329.46,339.53,385.13,404.67,423.02,420.06,416.51,412.36,408.81,406.44,404.67,404.07,403.48,403.48,403.48,404.07,404.07,404.07,404.67,404.67,405.26,405.26,405.85,405.85,406.44,406.44,406.44,406.44,406.44,406.44,406.44,406.44,406.44,406.44,406.44,406.44,406.44,406.44,406.44,406.44,406.44,406.44,406.44,406.44,406.44,406.44,406.44,406.44,406.44,406.44,406.44,406.44,406.44,406.44,406.44,406.44,406.44,406.44,406.44,406.44,406.44,406.44,406.44,406.44,406.44,406.44,406.44,406.44,406.44,406.44,418.88,418.88,418.88,436.05,425.98,425.98,420.06,415.33,415.33,400.52,383.94,383.94,367.36,367.36,358.48,349.60,339.53,335.38,330.65,325.32,324.73,326.50,321.17,321.17,320.58,319.40,319.40,319.40,318.21,318.21,317.62,317.62,317.62,317.62,317.62,318.21,318.21,318.80,318.80,319.40,319.40,319.40,319.99,319.99,319.99,320.58,320.58,320.58,320.58,320.58,319.99,319.40,319.40,319.40,318.80,318.21,318.21,317.62,317.62,317.62,317.62,317.62,317.62,317.62,317.62,317.62,317.62,317.62,318.21,318.80,318.80,319.40,320.58,321.17,326.50,326.50,335.38,340.71,351.96,351.96,363.22,383.94,383.94,383.94,400.52,415.33,415.33,415.33,420.06,425.98,436.05,436.05,436.05,436.05,436.05,436.05,418.88,418.88,418.88,418.88,406.44,406.44,406.44,406.44,406.44,406.44,406.44,406.44,406.44,406.44,406.44,406.44,406.44,418.88,418.88,418.88,418.88,418.88,436.05,436.05,436.05,436.05,436.05,436.05,436.05,436.05,436.05,436.05,436.05,436.05,436.05,436.05,436.05,436.05,418.88,418.88,418.88,418.88,418.88,418.88,418.88,418.88,418.88,418.88,418.88,418.88,418.88,418.88,418.88,418.88,418.88,418.88,418.88,418.88,418.88,418.88,418.88,418.88,418.88,418.88,418.88,418.88,418.88,406.44,406.44,406.44,406.44,406.44,406.44,406.44,406.44,406.44,418.88,418.88,418.88,418.88,418.88,418.88,418.88,418.88,418.88,418.88,418.88,418.88,418.88,418.88,418.88,418.88,418.88,418.88,418.88,418.88,418.88,418.88,418.88,418.88,418.88,418.88,418.88,418.88,418.88,418.88,418.88,418.88,418.88,418.88,418.88,436.05,436.05,436.05,436.05,436.05,436.05,436.05,436.05,436.05,436.05,436.05,436.05,436.05,436.05,436.05,436.05,436.05,425.98,425.98,425.98,425.98,425.98,436.05,436.05,436.05,436.05,436.05,436.05,436.05,436.05,436.05,436.05,436.05,436.05,436.05,436.05,436.05,436.05,436.05,436.05,436.05,436.05,425.98,425.98,425.98,425.98,425.98,425.98,420.06,420.06,420.06,415.33,400.52,400.52,383.94,372.69,372.69,367.36,363.22,363.22,358.48,351.96,351.96,347.82,347.82,347.82,340.71,340.71,340.71,337.75,337.75,337.75,337.75,337.75,337.75,337.75,337.75,337.75,337.75,337.75,335.38,335.38,335.38,335.38,337.75,337.75,337.75,337.75,337.75,337.75,337.75,337.75,337.75,340.71,340.71,340.71,340.71,340.71,340.71,340.71,347.82,347.82,347.82,347.82,347.82,347.82,347.82,347.82,347.82,347.82,351.96,351.96,351.96,351.96,358.48,358.48,358.48,358.48,358.48,358.48,363.22,363.22,363.22,363.22,363.22,363.22,358.48,358.48,358.48,358.48
326.50,326.50,326.50,326.50,326.50,327.09,327.09,326.50,327.09,326.50,326.50,327.09,326.50,327.09,326.50,327.69,326.50,327.69,327.69,328.87,338.94,376.84,409.40,427.17,426.58,424.21,420.06,415.92,411.77,407.63,404.67,403.48,403.48,402.89,402.30,402.30,402.89,402.89,403.48,403.48,404.07,404.67,405.26,406.44,406.44,406.44,406.44,406.44,406.44,406.44,406.44,406.44,406.44,406.44,406.44,406.44,406.44,406.44,406.44,406.44,406.44,406.44,406.44,406.44,406.44,406.44,406.44,406.44,406.44,406.44,406.44,406.44,406.44,406.44,406.44,406.44,406.44,406.44,406.44,406.44,406.44,406.44,406.44,406.44,406.44,393.42,406.44,406.44,406.44,418.88,418.88,418.88,436.05,436.05,436.05,425.98,420.06,420.06,415.33,400.52,400.52,383.94,383.94,367.95,362.03,350.78,340.12,333.02,325.91,325.32,326.50,321.17,321.17,320.58,319.99,319.99,319.40,318.21,318.21,317.62,317.62,317.62,317.62,318.21,318.21,318.21,318.80,318.80,319.40,319.40,319.40,319.99,319.99,319.99,320.58,320.58,320.58,320.58,320.58,319.99,319.40,319.40,319.40,318.80,318.21,318.21,318.21,317.62,317.62,317.62,317.62,317.62,317.62,317.62,317.62,317.62,317.62,318.21,318.80,318.80,319.40,320.58,322.36,329.46,329.46,335.38,340.71,351.96,351.96,367.36,383.94,383.94,383.94,400.52,415.33,415.33,415.33,420.06,425.98,425.98,425.98,436.05,436.05,436.05,436.05,418.88,418.88,418.88,418.88,418.88,418.88,406.44,406.44,406.44,406.44,406.44,406.44,406.44,406.44,406.44,406.44,406.44,418.88,418.88,418.88,418.88,418.88,436.05,436.05,436.05,436.05,436.05,436.05,436.05,436.05,436.05,436.05,436.05,436.05,436.05,436.05,436.05,436.05,418.88,418.88,418.88,418.88,418.88,418.88,418.88,418.88,418.88,418.88,418.88,418.88,418.88,418.88,418.88,418.88,418.88,418.88,418.88,418.88,418.88,418.88,418.88,418.88,418.88,418.88,418.88,418.88,418.88,406.44,406.44,406.44,406.44,406.44,406.44,406.44,406.44,406.44,418.88,418.88,418.88,418.88,418.88,418.88,418.88,418.88,418.88,418.88,418.88,418.88,418.88,418.88,418.88,418.88,418.88,418.88,418.88,418.88,418.88,418.88,418.88,418.88,418.88,418.88,418.88,418.88,418.88,418.88,418.88,418.88,418.88,418.88,418.88,436.05,436.05,436.05,436.05,436.05,436.05,436.05,436.05,436.05,436.05,436.05,436.05,436.05,436.05,436.05,436.05,425.98,425.98,425.98,425.98,425.98,425.98,436.05,436.05,436.05,436.05,436.05,436.05,436.05,436.05,436.05,436.05,436.05,436.05,436.05,436.05,436.05,436.05,436.05,436.05,436.05,436.05,425.98,425.98,425.98,425.98,425.98,420.06,420.06,420.06,415.33,400.52,400.52,383.94,372.69,367.36,367.36,363.22,358.48,358.48,347.82,347.82,347.82,340.71,340.71,340.71,337.75,337.75,337.75,337.75,337.75,337.75,337.75,337.75,337.75,337.75,337.75,337.75,337.75,337.75,335.38,335.38,335.38,335.38,337.75,337.75,337.75,337.75,337.75,337.75,337.75,337.75,337.75,340.71,340.71,340.71,340.71,340.71,340.71,340.71,347.82,347.82,347.82,347.82,347.82,347.82,347.82,347.82,347.82,347.82,351.96,351.96,351.96,351.96,358.48,358.48,358.48,358.48,358.48,358.48,363.22,363.22,363.22,363.22,363.22,363.22,358.48,358.48,358.48,358.48
327.09,326.50,326.50,327.09,326.50,327.09,326.50,327.09,327.09,327.09,327.09,327.09,327.69,327.09,327.69,327.09,327.69,327.09,327.69,327.09,338.94,373.28,411.18,430.13,430.72,428.95,426.58,423.62,420.06,415.33,410.00,405.85,402.89,401.71,401.71,401.11,401.11,400.52,401.11,401.11,401.71,401.71,402.89,406.44,406.44,406.44,406.44,406.44,406.44,406.44,406.44,406.44,406.44,406.44,406.44,406.44,406.44,406.44,406.44,406.44,406.44,406.44,406.44,406.44,406.44,406.44,406.44,406.44,406.44,406.44,406.44,406.44,406.44,406.44,406.44,406.44,406.44,406.44,406.44,406.44,406.44,406.44,406.44,406.44,406.44,393.42,406.44,406.44,406.44,418.88,418.88,418.88,436.05,436.05,436.05,425.98,420.06,420.06,415.33,400.52,400.52,383.94,383.94,383.35,375.06,365.58,355.52,346.64,331.83,326.50,326.50,321.17,321.17,320.58,319.99,319.99,319.40,318.21,318.21,317.62,317.62,317.62,317.62,318.21,318.21,318.21,318.80,318.80,319.40,319.40,319.40,319.99,319.99,319.99,320.58,320.58,320.58,320.58,320.58,319.99,319.40,319.40,319.40,318.80,318.21,318.21,318.21,317.62,317.62,317.62,317.62,317.62,317.62,317.62,317.62,317.62,317.62,318.21,318.80,318.80,319.40,320.58,322.36,329.46,329.46,335.38,340.71,351.96,351.96,363.22,372.69,383.94,383.94,400.52,415.33,415.33,415.33,420.06,425.98,425.98,425.98,436.05,436.05,436.05,436.05,436.05,436.05,436.05,418.88,418.88,418.88,418.88,406.44,406.44,406.44,406.44,406.44,406.44,406.44,406.44,406.44,406.44,406.44,406.44,418.88,418.88,418.88,418.88,436.05,436.05,436.05,436.05,436.05,436.05,436.05,436.05,436.05,436.05,436.05,436.05,436.05,418.88,418.88,418.88,418.88,418.88,418.88,418.88,418.88,418.88,418.88,418.88,418.88,418.88,418.88,418.88,418.88,418.88,418.88,418.88,418.88,418.88,418.88,418.88,418.88,418.88,418.88,418.88,418.88,406.44,406.44,406.44,406.44,406.44,406.44,406.44,406.44,406.44,406.44,406.44,406.44,406.44,418.88,418.88,418.88,418.88,418.88,418.88,418.88,418.88,418.88,418.88,418.88,418.88,418.88,418.88,418.88,418.88,418.88,418.88,418.88,418.88,418.88,418.88,418.88,418.88,418.88,418.88,418.88,418.88,418.88,418.88,418.88,418.88,418.88,436.05,436.05,436.05,436.05,436.05,436.05,436.05,436.05,436.05,436.05,436.05,436.05,436.05,436.05,436.05,436.05,436.05,425.98,425.98,425.98,425.98,425.98,425.98,436.05,436.05,436.05,436.05,436.05,436.05,436.05,436.05,436.05,436.05,436.05,436.05,436.05,436.05,436.05,436.05,436.05,436.05,436.05,436.05,425.98,425.98,425.98,425.98,425.98,420.06,415.33,415.33,415.33,383.94,383.94,372.69,367.36,367.36,363.22,363.22,358.48,347.82,340.71,340.71,340.71,337.75,337.75,337.75,337.75,337.75,337.75,335.38,335.38,337.75,337.75,337.75,337.75,337.75,337.75,337.75,337.75,337.75,337.75,337.75,337.75,337.75,337.75,337.75,337.75,337.75,337.75,340.71,340.71,340.71,340.71,340.71,340.71,340.71,347.82,347.82,347.82,347.82,347.82,347.82,351.96,351.96,351.96,351.96,351.96,351.96,351.96,351.96,351.96,351.96,358.48,358.48,358.48,358.48,363.22,363.22,363.22,363.22,367.36,367.36,367.36,367.36,367.36,367.36,367.36,363.22,363.22,363.22
326.50,326.50,326.50,326.50,326.50,326.50,326.50,326.50,326.50,326.50,326.50,326.50,327.09,326.50,326.50,326.50,326.50,327.09,326.50,327.69,338.94,372.10,411.77,431.31,433.09,432.50,431.31,428.95,426.58,423.62,418.88,412.96,407.04,401.71,399.93,399.34,399.34,398.75,398.75,398.15,397.56,398.15,397.56,393.42,393.42,393.42,406.44,406.44,406.44,406.44,393.42,393.42,406.44,406.44,406.44,406.44,406.44,406.44,406.44,406.44,406.44,406.44,406.44,406.44,406.44,406.44,406.44,406.44,406.44,406.44,406.44,406.44,406.44,406.44,406.44,406.44,406.44,406.44,393.42,393.42,393.42,393.42,393.42,393.42,393.42,393.42,393.42,406.44,406.44,406.44,418.88,418.88,418.88,436.05,436.05,436.05,425.98,420.06,420.06,415.33,400.52,400.52,400.52,401.71,388.68,380.39,362.62,345.45,336.57,328.87,332.42,322.36,322.36,322.36,319.99,319.99,319.40,318.21,318.21,318.21,317.62,317.62,317.62,318.21,318.21,318.21,318.80,318.80,319.40,319.40,319.40,319.99,320.58,320.58,320.58,320.58,320.58,320.58,320.58,319.99,319.40,319.40,319.40,318.80,318.21,318.21,318.21,317.62,317.62,317.62,317.62,317.62,317.62,317.62,317.62,317.62,317.62,318.21,318.80,318.80,319.40,320.58,321.17,321.17,326.50,335.38,340.71,351.96,351.96,363.22,372.69,383.94,383.94,400.52,415.33,415.33,415.33,420.06,420.06,420.06,425.98,425.98,436.05,436.05,436.05,436.05,436.05,436.05,436.05,418.88,418.88,418.88,418.88,418.88,406.44,406.44,406.44,406.44,406.44,406.44,406.44,406.44,406.44,406.44,406.44,418.88,418.88,418.88,418.88,418.88,436.05,436.05,436.05,436.05,436.05,436.05,418.88,418.88,418.88,418.88,418.88,418.88,418.88,418.88,418.88,418.88,406.44,406.44,406.44,406.44,406.44,406.44,406.44,406.44,418.88,418.88,418.88,418.88,418.88,418.88,418.88,418.88,418.88,418.88,418.88,418.88,418.88,418.88,418.88,406.44,406.44,406.44,406.44,406.44,406.44,406.44,406.44,406.44,406.44,406.44,406.44,406.44,418.88,418.88,406.44,418.88,418.88,418.88,418.88,418.88,418.88,418.88,418.88,418.88,418.88,418.88,418.88,418.88,418.88,418.88,418.88,418.88,418.88,418.88,418.88,418.88,418.88,418.88,418.88,418.88,418.88,418.88,418.88,418.88,418.88,436.05,436.05,436.05,436.05,436.05,436.05,436.05,436.05,436.05,436.05,436.05,436.05,436.05,436.05,436.05,436.05,436.05,436.05,436.05,436.05,436.05,436.05,436.05,436.05,436.05,436.05,436.05,436.05,436.05,436.05,436.05,436.05,436.05,436.05,436.05,436.05,436.05,436.05,436.05,436.05,436.05,436.05,436.05,425.98,425.98,425.98,425.98,425.98,420.06,415.33,415.33,415.33,383.94,383.94,372.69,367.36,367.36,363.22,363.22,352.56,347.82,340.71,340.71,340.71,337.75,337.75,337.75,337.75,337.75,337.75,335.38,335.38,337.75,337.75,337.75,337.75,337.75,337.75,337.75,337.75,337.75,337.75,337.75,340.71,340.71,340.71,340.71,340.71,340.71,340.71,340.71,340.71,340.71,340.71,347.82,347.82,347.82,347.82,347.82,351.96,351.96,351.96,351.96,351.96,358.48,358.48,358.48,358.48,358.48,358.48,358.48,358.48,358.48,358.48,358.48,363.22,363.22,363.22,367.36,367.36,367.36,367.36,367.36,367.36,367.36,372.69,367.36,367.36,367.36,367.36,367.36
326.50,326.50,326.50,326.50,326.50,326.50,326.50,326.50,326.50,326.50,326.50,327.09,326.50,327.69,326.50,327.69,327.09,327.69,327.69,327.69,338.94,370.91,411.18,431.31,434.27,433.68,433.09,432.50,431.31,428.35,425.39,421.84,416.51,409.40,402.30,398.15,396.97,396.38,395.78,395.19,395.19,394.60,394.60,393.42,393.42,393.42,393.42,393.42,393.42,393.42,393.42,393.42,393.42,406.44,406.44,406.44,406.44,406.44,406.44,406.44,406.44,406.44,406.44,406.44,406.44,406.44,406.44,393.42,393.42,393.42,393.42,393.42,393.42,393.42,393.42,393.42,393.42,393.42,393.42,393.42,393.42,393.42,393.42,393.42,393.42,393.42,393.42,406.44,406.44,406.44,406.44,406.44,418.88,418.88,418.88,436.05,436.05,436.05,436.05,425.98,420.06,420.06,420.06,410.00,407.04,390.45,370.32,352.56,341.31,335.38,331.83,330.05,324.73,323.54,319.99,319.99,319.40,318.80,318.80,318.21,318.21,318.21,318.21,318.21,318.21,318.21,318.80,318.80,319.40,319.40,319.40,319.99,320.58,320.58,320.58,320.58,320.58,320.58,320.58,319.99,319.40,319.40,319.40,318.80,318.21,318.21,318.21,317.62,317.62,317.62,317.62,317.62,317.62,317.62,317.62,317.62,317.62,318.21,318.80,318.80,319.40,320.58,321.17,321.17,326.50,335.38,340.71,351.96,351.96,363.22,372.69,383.94,383.94,400.52,415.33,415.33,415.33,420.06,420.06,420.06,425.98,425.98,436.05,436.05,436.05,436.05,436.05,436.05,436.05,418.88,418.88,418.88,418.88,418.88,406.44,406.44,406.44,406.44,406.44,406.44,406.44,406.44,406.44,406.44,406.44,418.88,418.88,418.88,418.88,418.88,418.88,418.88,418.88,418.88,418.88,418.88,418.88,418.88,418.88,418.88,418.88,418.88,418.88,418.88,418.88,406.44,406.44,406.44,406.44,406.44,406.44,406.44,406.44,406.44,406.44,406.44,418.88,418.88,418.88,418.88,418.88,418.88,418.88,418.88,418.88,418.88,418.88,418.88,418.88,406.44,406.44,406.44,406.44,406.44,406.44,406.44,406.44,406.44,406.44,406.44,406.44,406.44,406.44,406.44,406.44,418.88,418.88,406.44,406.44,406.44,418.88,418.88,418.88,418.88,418.88,418.88,418.88,418.88,418.88,418.88,418.88,418.88,418.88,418.88,418.88,418.88,418.88,418.88,418.88,418.88,418.88,418.88,418.88,418.88,418.88,436.05,436.05,436.05,436.05,436.05,436.05,436.05,436.05,436.05,436.05,436.05,436.05,436.05,436.05,436.05,436.05,436.05,436.05,436.05,436.05,436.05,436.05,436.05,436.05,436.05,436.05,436.05,436.05,436.05,436.05,436.05,436.05,436.05,436.05,436.05,436.05,436.05,436.05,436.05,436.05,436.05,436.05,425.98,425.98,425.98,425.98,420.06,420.06,420.06,415.33,415.33,400.52,383.94,383.94,367.36,363.22,363.22,358.48,347.82,347.82,340.71,340.71,337.75,337.75,337.75,337.75,337.75,337.75,337.75,337.75,335.38,335.38,337.75,337.75,337.75,337.75,337.75,337.75,337.75,337.75,337.75,337.75,337.75,340.71,340.71,340.71,340.71,340.71,340.71,340.71,340.71,340.71,340.71,340.71,347.82,347.82,347.82,347.82,347.82,351.96,351.96,351.96,351.96,351.96,358.48,358.48,358.48,358.48,358.48,358.48,358.48,358.48,358.48,358.48,358.48,363.22,363.22,363.22,367.36,367.36,367.36,367.36,367.36,367.36,367.36,372.69,367.36,367.36,367.36,367.36,367.36
326.50,326.50,326.50,326.50,326.50,326.50,326.50,326.50,326.50,326.50,326.50,326.50,326.50,326.50,327.09,326.50,326.50,327.09,326.50,327.09,334.79,370.32,409.40,431.31,434.27,434.87,434.27,433.68,433.09,432.50,430.72,428.35,423.62,419.47,412.36,401.71,396.97,395.19,393.42,392.82,392.23,391.64,392.23,393.42,393.42,393.42,393.42,393.42,393.42,393.42,393.42,393.42,393.42,406.44,406.44,406.44,406.44,406.44,406.44,406.44,406.44,406.44,406.44,406.44,406.44,406.44,406.44,393.42,393.42,393.42,393.42,393.42,393.42,393.42,393.42,393.42,393.42,393.42,393.42,393.42,393.42,393.42,393.42,393.42,393.42,393.42,393.42,406.44,406.44,406.44,406.44,406.44,418.88,418.88,418.88,436.05,436.05,436.05,436.05,425.98,420.06,420.06,420.06,420.06,405.26,383.35,367.95,356.70,347.82,347.82,332.42,332.42,329.46,325.32,319.99,319.99,319.40,318.80,318.80,318.21,318.21,318.21,318.21,318.21,318.21,318.21,318.80,318.80,319.40,319.40,319.40,319.99,319.99,319.99,320.58,320.58,320.58,320.58,320.58,319.99,319.40,319.40,319.40,318.80,318.21,318.21,318.21,317.62,317.62,317.62,317.62,317.62,317.62,317.62,317.62,317.62,317.62,318.21,318.80,318.80,319.40,320.58,321.17,321.17,326.50,335.38,340.71,351.96,351.96,363.22,372.69,383.94,383.94,400.52,415.33,415.33,415.33,420.06,420.06,420.06,425.98,425.98,436.05,436.05,436.05,436.05,436.05,436.05,436.05,418.88,418.88,418.88,418.88,418.88,418.88,406.44,406.44,406.44,406.44,406.44,406.44,406.44,406.44,406.44,406.44,418.88,418.88,418.88,418.88,418.88,418.88,418.88,418.88,418.88,418.88,418.88,418.88,418.88,418.88,418.88,418.88,418.88,418.88,418.88,418.88,406.44,406.44,406.44,406.44,406.44,406.44,406.44,406.44,406.44,406.44,406.44,418.88,418.88,418.88,418.88,418.88,418.88,418.88,418.88,418.88,418.88,418.88,418.88,418.88,406.44,406.44,406.44,406.44,406.44,406.44,406.44,406.44,406.44,406.44,406.44,406.44,406.44,406.44,406.44,406.44,418.88,418.88,406.44,406.44,406.44,418.88,418.88,418.88,418.88,418.88,418.88,418.88,418.88,418.88,418.88,418.88,418.88,418.88,418.88,418.88,418.88,418.88,418.88,418.88,418.88,418.88,418.88,418.88,436.05,436.05,436.05,436.05,436.05,436.05,436.05,436.05,436.05,436.05,436.05,436.05,436.05,436.05,436.05,436.05,436.05,436.05,436.05,436.05,436.05,436.05,436.05,436.05,436.05,436.05,436.05,436.05,436.05,436.05,436.05,436.05,436.05,436.05,436.05,436.05,436.05,436.05,436.05,436.05,436.05,436.05,436.05,436.05,425.98,425.98,425.98,420.06,420.06,420.06,415.33,400.52,400.52,383.94,372.69,372.69,363.22,358.48,358.48,347.82,340.71,340.71,340.71,337.75,337.75,337.75,335.38,335.38,337.75,337.75,337.75,337.75,337.75,337.75,337.75,337.75,337.75,337.75,340.71,340.71,340.71,340.71,340.71,340.71,340.71,340.71,340.71,340.71,340.71,340.71,340.71,340.71,340.71,340.71,347.82,347.82,347.82,347.82,351.96,351.96,351.96,358.48,358.48,358.48,358.48,358.48,358.48,358.48,358.48,358.48,358.48,358.48,358.48,358.48,358.48,363.22,363.22,367.36,367.36,367.36,367.36,372.69,372.69,372.69,372.69,372.69,372.69,383.94,383.94,383.94,383.94,383.94,383.94
326.50,326.50,326.50,326.50,326.50,326.50,326.50,326.50,326.50,326.50,326.50,326.50,326.50,327.09,326.50,327.69,327.09,327.09,327.69,327.09,335.38,367.95,400.52,431.31,434.87,434.87,434.87,434.87,434.27,434.27,433.09,431.91,430.13,427.17,421.25,415.33,405.26,399.34,396.38,392.23,391.64,391.05,390.45,389.27,379.80,379.80,379.80,393.42,393.42,393.42,393.42,393.42,393.42,393.42,393.42,406.44,406.44,406.44,406.44,406.44,406.44,393.42,393.42,393.42,393.42,393.42,393.42,393.42,393.42,393.42,393.42,393.42,393.42,393.42,393.42,393.42,393.42,393.42,393.42,393.42,393.42,393.42,393.42,406.44,406.44,393.42,393.42,406.44,406.44,406.44,406.44,406.44,406.44,418.88,418.88,418.88,418.88,436.05,436.05,436.05,425.98,425.98,415.33,400.52,400.52,372.69,367.36,367.36,347.82,347.82,332.42,332.42,329.46,326.50,320.58,320.58,319.40,318.80,318.80,318.21,318.21,318.21,318.21,318.21,318.21,318.21,318.80,318.80,319.40,319.40,319.40,319.99,319.99,319.99,320.58,320.58,320.58,320.58,320.58,319.99,319.40,319.40,319.40,318.80,318.21,318.21,318.21,317.62,317.62,317.62,317.62,317.62,317.62,317.62,317.62,317.62,317.62,318.21,318.80,318.80,319.40,319.99,321.17,321.17,326.50,332.42,337.75,351.96,351.96,363.22,372.69,383.94,383.94,400.52,415.33,415.33,415.33,420.06,420.06,420.06,425.98,425.98,436.05,436.05,436.05,436.05,436.05,436.05,436.05,436.05,436.05,418.88,418.88,418.88,418.88,406.44,406.44,406.44,406.44,406.44,406.44,406.44,406.44,406.44,406.44,406.44,406.44,418.88,418.88,418.88,418.88,418.88,418.88,418.88,418.88,418.88,418.88,418.88,418.88,418.88,418.88,418.88,418.88,406.44,406.44,406.44,406.44,406.44,406.44,406.44,406.44,406.44,406.44,406.44,406.44,406.44,406.44,406.44,418.88,418.88,418.88,418.88,418.88,418.88,418.88,418.88,418.88,406.44,406.44,406.44,406.44,406.44,406.44,406.44,406.44,406.44,406.44,406.44,406.44,406.44,406.44,406.44,418.88,418.88,418.88,418.88,418.88,406.44,406.44,406.44,406.44,406.44,406.44,406.44,406.44,406.44,406.44,406.44,418.88,418.88,418.88,418.88,418.88,418.88,418.88,418.88,418.88,418.88,418.88,418.88,418.88,418.88,418.88,436.05,436.05,436.05,436.05,436.05,436.05,436.05,436.05,436.05,436.05,436.05,436.05,436.05,436.05,436.05,436.05,436.05,436.05,436.05,436.05,436.05,436.05,436.05,436.05,436.05,436.05,436.05,436.05,436.05,436.05,436.05,436.05,436.05,436.05,436.05,436.05,436.05,436.05,436.05,436.05,436.05,425.98,425.98,425.98,425.98,420.06,420.06,420.06,415.33,415.33,400.52,383.94,383.94,372.69,363.22,363.22,358.48,351.96,351.96,347.82,340.71,340.71,337.75,335.38,335.38,335.38,335.38,335.38,335.38,335.38,337.75,337.75,337.75,337.75,337.75,340.71,340.71,340.71,340.71,340.71,347.82,347.82,347.82,347.82,347.82,347.82,347.82,347.82,347.82,347.82,347.82,347.82,347.82,347.82,347.82,351.96,351.96,351.96,358.48,358.48,358.48,358.48,358.48,358.48,358.48,363.22,363.22,363.22,363.22,363.22,363.22,363.22,363.22,363.22,363.22,367.36,367.36,367.36,367.36,372.69,372.69,383.94,383.94,383.94,383.94,383.94,383.94,383.94,383.94,383.94,383.94,400.52,400.52
326.50,326.50,326.50,326.50,326.50,326.50,326.50,326.50,326.50,326.50,326.50,326.50,326.50,326.50,326.50,326.50,327.09,327.69,326.50,327.69,334.20,357.29,388.68,430.13,434.87,435.46,435.46,434.87,434.87,434.87,434.27,433.68,432.50,430.72,428.95,423.62,417.10,408.22,399.34,393.42,388.68,387.49,385.13,383.94,379.80,379.80,379.80,393.42,393.42,393.42,393.42,393.42,393.42,393.42,393.42,393.42,406.44,406.44,406.44,406.44,393.42,393.42,393.42,393.42,393.42,393.42,393.42,393.42,393.42,393.42,393.42,393.42,393.42,393.42,393.42,393.42,393.42,393.42,393.42,393.42,393.42,393.42,393.42,406.44,406.44,406.44,406.44,406.44,406.44,406.44,406.44,406.44,406.44,418.88,418.88,418.88,418.88,436.05,436.05,436.05,420.06,420.06,400.52,383.94,383.94,367.36,363.22,363.22,347.82,347.82,332.42,332.42,329.46,325.91,322.95,321.17,319.40,318.21,318.21,318.21,318.21,318.21,318.21,318.21,318.21,318.21,318.80,318.80,319.40,319.40,319.40,319.99,319.99,319.99,320.58,320.58,320.58,320.58,320.58,319.99,319.40,319.40,319.40,318.80,318.21,318.21,318.21,317.62,317.62,317.62,317.62,317.62,317.62,317.62,317.62,317.62,317.62,318.21,318.80,318.80,319.40,319.99,321.17,321.17,326.50,332.42,337.75,351.96,351.96,363.22,372.69,383.94,383.94,400.52,415.33,415.33,415.33,420.06,420.06,420.06,425.98,425.98,436.05,436.05,436.05,436.05,436.05,436.05,436.05,436.05,436.05,418.88,418.88,418.88,418.88,406.44,406.44,406.44,406.44,406.44,406.44,406.44,406.44,406.44,406.44,406.44,406.44,406.44,418.88,418.88,418.88,418.88,418.88,418.88,418.88,418.88,418.88,418.88,418.88,418.88,418.88,418.88,406.44,406.44,406.44,406.44,406.44,406.44,406.44,406.44,406.44,406.44,406.44,406.44,406.44,406.44,406.44,406.44,418.88,418.88,406.44,418.88,418.88,418.88,418.88,418.88,418.88,406.44,406.44,406.44,406.44,406.44,406.44,406.44,406.44,406.44,406.44,406.44,406.44,406.44,406.44,406.44,418.88,418.88,418.88,418.88,418.88,406.44,406.44,406.44,406.44,406.44,406.44,406.44,406.44,406.44,406.44,406.44,406.44,418.88,418.88,418.88,418.88,418.88,418.88,418.88,418.88,418.88,418.88,418.88,418.88,418.88,418.88,418.88,418.88,436.05,436.05,436.05,436.05,436.05,436.05,436.05,436.05,436.05,436.05,436.05,436.05,436.05,436.05,436.05,436.05,418.88,436.05,436.05,436.05,436.05,436.05,436.05,436.05,436.05,436.05,436.05,436.05,436.05,436.05,436.05,436.05,436.05,436.05,436.05,436.05,436.05,436.05,436.05,425.98,425.98,425.98,425.98,420.06,420.06,420.06,415.33,415.33,400.52,383.94,383.94,372.69,363.22,363.22,358.48,351.96,351.96,347.82,340.71,340.71,337.75,335.38,335.38,335.38,335.38,335.38,335.38,335.38,337.75,337.75,337.75,340.71,340.71,340.71,340.71,347.82,347.82,347.82,347.82,347.82,347.82,347.82,347.82,347.82,347.82,347.82,347.82,351.96,351.96,351.96,351.96,351.96,351.96,358.48,358.48,358.48,358.48,363.22,363.22,363.22,363.22,363.22,363.22,367.36,367.36,367.36,367.36,367.36,367.36,367.36,367.36,367.36,367.36,367.36,367.36,367.36,367.36,372.69,372.69,383.94,383.94,383.94,383.94,383.94,383.94,383.94,383.94,383.94,383.94,400.52,400.52
326.50,326.50,326.50,326.50,326.50,326.50,326.50,326.50,326.50,326.50,326.50,326.50,326.50,326.50,326.50,327.69,326.50,326.50,327.09,326.50,327.69,356.70,388.09,424.80,435.46,434.87,435.46,435.46,435.46,435.46,434.87,434.27,434.27,433.09,431.91,430.13,425.39,419.47,408.22,398.15,392.82,390.45,389.27,386.90,379.80,379.80,379.80,379.80,379.80,379.80,393.42,393.42,393.42,393.42,393.42,393.42,393.42,393.42,393.42,393.42,393.42,393.42,393.42,393.42,393.42,393.42,393.42,393.42,393.42,393.42,393.42,393.42,393.42,393.42,393.42,393.42,393.42,393.42,393.42,393.42,393.42,393.42,393.42,393.42,406.44,406.44,406.44,406.44,406.44,406.44,406.44,406.44,406.44,406.44,418.88,418.88,418.88,436.05,436.05,436.05,420.06,420.06,400.52,383.94,383.94,367.36,363.22,363.22,347.82,347.82,332.42,332.42,330.05,325.32,322.95,321.17,319.40,318.21,318.21,318.21,318.21,318.21,318.21,318.21,318.21,318.21,318.80,318.80,319.40,319.40,319.40,319.99,319.99,319.99,320.58,320.58,320.58,320.58,320.58,319.99,319.40,319.40,319.40,318.80,318.21,318.21,317.62,317.62,317.62,317.62,317.62,317.62,317.62,317.62,317.62,317.62,317.62,318.21,318.80,318.80,319.40,319.99,320.58,320.58,326.50,332.42,337.75,347.82,347.82,363.22,372.69,383.94,383.94,400.52,415.33,415.33,415.33,420.06,420.06,420.06,425.98,425.98,436.05,436.05,436.05,436.05,436.05,436.05,436.05,436.05,436.05,418.88,418.88,418.88,418.88,406.44,406.44,406.44,406.44,406.44,406.44,406.44,406.44,406.44,406.44,406.44,406.44,406.44,418.88,418.88,418.88,418.88,418.88,418.88,418.88,418.88,418.88,418.88,418.88,418.88,418.88,418.88,406.44,406.44,406.44,406.44,406.44,406.44,406.44,406.44,406.44,406.44,406.44,406.44,406.44,406.44,406.44,406.44,418.88,418.88,406.44,418.88,418.88,418.88,418.88,418.88,418.88,406.44,406.44,406.44,406.44,406.44,406.44,406.44,406.44,406.44,406.44,406.44,406.44,406.44,406.44,418.88,418.88,418.88,418.88,418.88,418.88,406.44,406.44,406.44,406.44,406.44,406.44,406.44,406.44,406.44,406.44,406.44,406.44,418.88,418.88,418.88,418.88,418.88,418.88,418.88,418.88,418.88,418.88,418.88,418.88,418.88,418.88,436.05,436.05,436.05,436.05,436.05,436.05,436.05,436.05,436.05,436.05,436.05,436.05,436.05,436.05,436.05,436.05,436.05,436.05,418.88,436.05,436.05,436.05,436.05,436.05,436.05,436.05,436.05,436.05,436.05,436.05,436.05,436.05,436.05,436.05,436.05,436.05,436.05,436.05,425.98,425.98,425.98,420.06,420.06,420.06,415.33,415.33,415.33,400.52,383.94,383.94,383.94,367.36,367.36,363.22,358.48,358.48,351.96,347.82,347.82,340.71,337.75,337.75,335.38,335.38,335.38,335.38,335.38,335.38,335.38,335.38,337.75,337.75,337.75,340.71,340.71,340.71,340.71,347.82,347.82,347.82,347.82,347.82,347.82,347.82,347.82,347.82,347.82,347.82,347.82,351.96,351.96,351.96,351.96,351.96,351.96,358.48,358.48,358.48,358.48,363.22,363.22,363.22,363.22,363.22,363.22,367.36,367.36,367.36,367.36,367.36,367.36,367.36,367.36,367.36,367.36,367.36,372.69,372.69,372.69,372.69,383.94,383.94,383.94,400.52,400.52,400.52,400.52,400.52,400.52,400.52,400.52,400.52,400.52
326.50,326.50,326.50,326.50,326.50,326.50,326.50,326.50,326.50,326.50,326.50,326.50,326.50,326.50,326.50,326.50,327.09,327.09,327.09,327.09,328.28,355.52,387.49,420.65,435.46,435.46,435.46,435.46,435.46,435.46,435.46,435.46,434.87,434.27,433.68,432.50,430.13,425.98,418.29,404.07,394.60,390.45,390.45,393.42,393.42,393.42,379.80,379.80,379.80,379.80,393.42,393.42,393.42,393.42,393.42,393.42,393.42,393.42,393.42,393.42,393.42,393.42,393.42,393.42,393.42,393.42,393.42,393.42,393.42,393.42,393.42,393.42,393.42,393.42,393.42,393.42,393.42,393.42,393.42,393.42,393.42,393.42,393.42,393.42,406.44,406.44,406.44,406.44,406.44,406.44,406.44,406.44,406.44,406.44,418.88,418.88,418.88,436.05,436.05,436.05,420.06,420.06,400.52,372.69,372.69,367.36,358.48,358.48,340.71,340.71,332.42,332.42,329.46,325.32,319.99,319.99,319.40,318.21,318.21,318.21,317.62,317.62,317.62,318.21,318.21,318.21,318.80,318.80,319.40,319.40,319.40,319.99,319.99,319.99,320.58,320.58,320.58,320.58,320.58,319.99,319.40,319.40,319.40,318.80,318.21,318.21,317.62,317.62,317.62,317.62,317.62,317.62,317.62,317.62,317.62,317.62,317.62,318.21,318.80,318.80,319.40,319.99,320.58,320.58,322.36,332.42,337.75,347.82,347.82,358.48,367.36,383.94,383.94,400.52,415.33,415.33,415.33,420.06,425.98,425.98,425.98,436.05,436.05,436.05,436.05,436.05,436.05,436.05,436.05,436.05,436.05,418.88,418.88,418.88,418.88,406.44,406.44,406.44,406.44,406.44,406.44,406.44,406.44,406.44,406.44,406.44,406.44,406.44,406.44,406.44,418.88,418.88,418.88,418.88,418.88,418.88,418.88,418.88,418.88,418.88,406.44,406.44,406.44,406.44,406.44,406.44,406.44,406.44,406.44,406.44,406.44,406.44,406.44,406.44,406.44,406.44,418.88,418.88,418.88,418.88,418.88,418.88,418.88,418.88,418.88,418.88,418.88,406.44,406.44,406.44,406.44,406.44,406.44,406.44,406.44,406.44,406.44,406.44,406.44,406.44,406.44,418.88,418.88,418.88,418.88,418.88,418.88,406.44,406.44,406.44,406.44,406.44,406.44,406.44,406.44,406.44,406.44,406.44,418.88,418.88,418.88,418.88,418.88,418.88,418.88,418.88,418.88,418.88,418.88,418.88,418.88,418.88,418.88,436.05,436.05,436.05,436.05,436.05,436.05,436.05,436.05,436.05,436.05,436.05,418.88,418.88,418.88,418.88,418.88,418.88,418.88,418.88,418.88,418.88,436.05,436.05,436.05,436.05,436.05,436.05,436.05,436.05,436.05,436.05,436.05,436.05,436.05,436.05,436.05,425.98,425.98,420.06,420.06,415.33,415.33,415.33,400.52,400.52,400.52,383.94,383.94,383.94,372.69,367.36,363.22,363.22,358.48,351.96,351.96,347.82,340.71,340.71,337.75,337.75,337.75,335.38,335.38,335.38,335.38,335.38,335.38,337.75,337.75,337.75,340.71,340.71,340.71,340.71,347.82,347.82,347.82,351.96,351.96,351.96,351.96,351.96,351.96,351.96,351.96,351.96,351.96,351.96,351.96,351.96,351.96,358.48,358.48,358.48,358.48,358.48,358.48,363.22,363.22,367.36,367.36,367.36,367.36,367.36,367.36,367.36,367.36,367.36,372.69,372.69,372.69,372.69,372.69,383.94,383.94,383.94,383.94,383.94,383.94,400.52,400.52,400.52,400.52,415.33,415.33,415.33,415.33,415.33,415.33,415.33,415.33,415.33
