487.79,487.79,487.79,495.53,499.95,499.95,499.95,499.95,499.95,499.95,499.95,499.95,499.95,499.95,499.95,499.95,499.95,499.95,499.95,499.95,499.95,499.95,495.53,487.79,487.79,474.52,463.46,463.46,438.02,438.02,409.27,399.32,399.32,378.31,368.35,368.35,360.61,360.61,360.61,360.61,355.08,355.08,355.08,355.08,360.61,368.35,368.35,378.31,399.32,409.27,409.27,438.02,463.46,487.79,499.95,499.95,501.06,502.16,502.16,502.16,505.48,505.48,502.16,502.16,502.16,501.06,499.95,499.95,495.53,482.26,482.26,474.52,453.51,453.51,438.02,424.75,424.75,424.75,424.75,424.75,424.75,424.75,424.75,424.75,424.75,424.75,424.75,424.75,438.02,453.51,453.51,453.51,463.46,474.52,474.52,482.26,482.26,482.26,482.26,482.26,482.26,482.26,482.26,474.52,474.52,474.52,474.52,474.52,474.52,474.52,474.52,474.52,474.52,474.52,474.52,474.52,482.26,482.26,482.26,482.26,482.26,482.26,482.26,482.26,482.26,474.52,474.52,474.52,463.46,463.46,463.46,463.46,453.51,453.51,453.51,453.51,453.51,453.51,453.51,453.51,453.51,453.51,453.51,453.51,453.51,453.51,453.51,453.51,453.51,453.51,453.51,453.51,453.51,453.51,453.51,453.51,463.46,463.46,463.46,463.46,463.46,463.46,463.46,463.46,463.46,463.46,463.46,463.46,463.46,463.46,463.46,463.46,463.46,463.46,453.51,453.51,453.51,453.51,453.51,463.46,474.52,474.52,463.46,463.46,463.46,453.51,453.51,453.51,438.02,424.75,424.75,424.75,409.27,409.27,399.32,399.32,399.32,399.32,399.32,399.32,399.32,399.32,399.32,399.32,399.32,399.32,399.32,399.32,399.32,409.27,424.75,424.75,424.75,438.02,438.02,438.02,438.02,438.02,438.02,438.02,438.02,438.02,438.02,438.02,438.02,438.02,438.02,438.02,438.02,438.02,438.02,438.02,438.02,438.02,438.02,438.02,438.02,438.02,438.02,438.02,438.02,438.02,438.02,453.51,438.02,438.02,453.51,453.51,453.51,453.51,453.51,453.51,453.51,453.51,453.51,438.02,438.02,424.75,424.75,424.75,399.32,399.32,399.32,378.31,360.61,360.61,347.34,341.81,341.81,339.60,334.07,334.07,334.07,331.86,331.86,331.86,331.86,334.07,381.62,428.07,508.80,508.80,508.80,515.44,515.44,515.44,515.44,515.44,515.44,515.44,515.44,515.44,515.44,515.44,515.44,515.44,515.44,515.44,515.44,515.44,515.44,515.44,515.44,515.44,515.44,515.44,515.44,515.44,515.44,515.44,515.44,515.44,515.44,515.44,515.44,515.44,515.44,515.44,515.44,515.44,515.44,515.44,515.44,515.44,518.75,518.75,518.75,524.28,539.76,539.76,539.76,539.76,543.08,543.08,539.76,539.76,539.76,539.76,539.76,524.28,524.28,515.44,508.80,502.16,502.16,501.06,501.06,492.21,490.00,478.94,478.94,474.52,460.14,459.04,463.46,463.46,474.52,474.52,474.52,474.52,464.56,462.35,459.04,457.93,456.82,455.72,454.61,454.61,453.51,453.51,452.40,453.51,452.40,452.40,452.40,452.40,451.29,452.40,452.40,452.40,452.40,452.40,452.40,452.40,451.29,453.51,452.40,430.28,392.68,359.51,324.12,324.12,321.91,324.12,320.80,321.91,324.12,321.91,320.80,323.01,323.01,321.91,321.91,323.01,320.80,321.91,323.01,321.91,320.80,320.80,320.80,323.01,323.01,321.91,320.80,320.80,321.91,321.91,319.69,319.69,319.69,321.91,320.80,318.59,319.69,319.69
482.26,482.26,487.79,495.53,499.95,499.95,499.95,499.95,499.95,499.95,499.95,499.95,499.95,499.95,499.95,499.95,499.95,499.95,499.95,499.95,499.95,499.95,495.53,487.79,487.79,474.52,463.46,463.46,438.02,438.02,409.27,399.32,399.32,378.31,368.35,368.35,360.61,360.61,360.61,360.61,355.08,355.08,355.08,355.08,360.61,360.61,360.61,368.35,399.32,399.32,399.32,424.75,463.46,482.26,482.26,495.53,499.95,501.06,501.06,502.16,502.16,502.16,502.16,502.16,502.16,501.06,499.95,499.95,495.53,487.79,487.79,474.52,453.51,453.51,438.02,438.02,438.02,424.75,424.75,424.75,424.75,424.75,424.75,424.75,424.75,424.75,424.75,424.75,438.02,453.51,453.51,453.51,463.46,474.52,474.52,482.26,482.26,482.26,482.26,482.26,482.26,482.26,482.26,474.52,474.52,474.52,474.52,474.52,474.52,474.52,474.52,474.52,474.52,474.52,474.52,474.52,482.26,482.26,482.26,482.26,482.26,482.26,482.26,482.26,482.26,474.52,474.52,474.52,463.46,463.46,463.46,463.46,453.51,453.51,453.51,453.51,453.51,453.51,453.51,453.51,453.51,453.51,453.51,453.51,453.51,453.51,453.51,453.51,453.51,453.51,453.51,453.51,453.51,453.51,453.51,453.51,463.46,463.46,463.46,453.51,453.51,453.51,453.51,463.46,463.46,463.46,463.46,463.46,463.46,463.46,463.46,463.46,463.46,463.46,453.51,453.51,453.51,453.51,453.51,463.46,463.46,463.46,463.46,463.46,453.51,453.51,453.51,453.51,438.02,424.75,424.75,424.75,399.32,399.32,399.32,399.32,399.32,399.32,399.32,399.32,378.31,378.31,378.31,378.31,378.31,378.31,399.32,399.32,399.32,399.32,399.32,399.32,409.27,409.27,409.27,424.75,424.75,424.75,424.75,438.02,438.02,438.02,438.02,438.02,438.02,438.02,438.02,438.02,438.02,438.02,438.02,438.02,424.75,424.75,424.75,424.75,424.75,424.75,424.75,424.75,424.75,424.75,438.02,438.02,438.02,438.02,453.51,453.51,453.51,453.51,453.51,453.51,453.51,453.51,453.51,438.02,438.02,438.02,424.75,424.75,399.32,399.32,399.32,378.31,360.61,360.61,355.08,341.81,341.81,339.60,334.07,334.07,334.07,331.86,331.86,331.86,331.86,334.07,388.26,426.96,505.48,505.48,505.48,508.80,508.80,508.80,508.80,508.80,515.44,515.44,515.44,515.44,515.44,515.44,515.44,515.44,515.44,515.44,515.44,515.44,515.44,515.44,515.44,515.44,515.44,515.44,515.44,515.44,515.44,515.44,515.44,515.44,515.44,515.44,515.44,515.44,515.44,515.44,515.44,515.44,515.44,515.44,515.44,518.75,518.75,524.28,524.28,524.28,539.76,539.76,539.76,539.76,543.08,543.08,539.76,539.76,539.76,539.76,539.76,524.28,518.75,518.75,508.80,502.16,502.16,501.06,501.06,497.74,494.42,490.00,499.95,482.26,482.26,487.79,463.46,463.46,474.52,474.52,474.52,474.52,476.73,476.73,473.41,471.20,468.99,466.78,465.67,464.56,463.46,462.35,461.25,460.14,460.14,460.14,459.04,459.04,459.04,457.93,457.93,457.93,457.93,457.93,456.82,457.93,456.82,456.82,456.82,452.40,415.91,372.78,329.65,323.01,323.01,321.91,321.91,323.01,321.91,321.91,323.01,320.80,321.91,321.91,323.01,320.80,323.01,323.01,320.80,320.80,323.01,323.01,321.91,320.80,320.80,320.80,321.91,320.80,320.80,320.80,321.91,321.91,320.80,320.80,320.80,321.91,321.91,318.59
474.52,474.52,482.26,487.79,487.79,495.53,495.53,495.53,495.53,495.53,495.53,495.53,495.53,495.53,499.95,495.53,495.53,495.53,495.53,495.53,495.53,495.53,487.79,487.79,482.26,474.52,463.46,453.51,424.75,424.75,409.27,399.32,399.32,378.31,368.35,368.35,360.61,360.61,360.61,360.61,360.61,355.08,355.08,355.08,360.61,360.61,360.61,368.35,399.32,399.32,399.32,424.75,463.46,482.26,482.26,495.53,499.95,501.06,501.06,502.16,502.16,502.16,502.16,502.16,502.16,501.06,499.95,499.95,499.95,487.79,487.79,474.52,463.46,463.46,453.51,438.02,438.02,438.02,424.75,424.75,424.75,424.75,424.75,424.75,424.75,438.02,438.02,438.02,453.51,453.51,463.46,463.46,474.52,482.26,487.79,487.79,487.79,487.79,487.79,487.79,487.79,487.79,482.26,482.26,482.26,474.52,474.52,474.52,474.52,474.52,474.52,474.52,474.52,474.52,474.52,474.52,482.26,482.26,482.26,482.26,482.26,482.26,474.52,474.52,474.52,474.52,463.46,463.46,463.46,453.51,453.51,453.51,453.51,453.51,453.51,438.02,438.02,438.02,438.02,438.02,438.02,438.02,438.02,438.02,438.02,438.02,453.51,453.51,453.51,453.51,453.51,453.51,453.51,453.51,453.51,453.51,453.51,453.51,453.51,453.51,453.51,453.51,453.51,463.46,463.46,463.46,463.46,463.46,463.46,463.46,463.46,463.46,463.46,463.46,453.51,453.51,453.51,463.46,463.46,463.46,463.46,463.46,463.46,463.46,453.51,453.51,453.51,453.51,438.02,424.75,424.75,424.75,399.32,399.32,399.32,399.32,399.32,399.32,378.31,378.31,378.31,368.35,368.35,368.35,368.35,368.35,368.35,368.35,378.31,378.31,378.31,399.32,399.32,399.32,399.32,399.32,409.27,409.27,409.27,424.75,424.75,424.75,424.75,424.75,424.75,424.75,424.75,424.75,424.75,424.75,424.75,424.75,424.75,424.75,424.75,424.75,424.75,424.75,424.75,424.75,424.75,424.75,424.75,438.02,438.02,438.02,438.02,438.02,453.51,453.51,453.51,453.51,453.51,453.51,453.51,438.02,438.02,438.02,424.75,424.75,399.32,399.32,399.32,378.31,360.61,360.61,355.08,341.81,341.81,339.60,334.07,334.07,334.07,331.86,331.86,331.86,331.86,334.07,389.36,425.86,505.48,505.48,505.48,508.80,508.80,508.80,508.80,508.80,515.44,515.44,515.44,515.44,515.44,515.44,515.44,515.44,515.44,515.44,515.44,515.44,515.44,515.44,515.44,515.44,515.44,515.44,515.44,515.44,515.44,515.44,515.44,515.44,515.44,515.44,515.44,515.44,515.44,515.44,515.44,515.44,515.44,515.44,515.44,518.75,518.75,524.28,524.28,539.76,539.76,539.76,539.76,543.08,543.08,543.08,543.08,543.08,543.08,539.76,539.76,524.28,518.75,518.75,515.44,505.48,505.48,502.16,502.16,502.16,498.85,497.74,499.95,502.16,487.79,487.79,487.79,487.79,487.79,495.53,495.53,481.15,478.94,477.84,475.62,474.52,472.31,471.20,470.09,468.99,467.88,466.78,465.67,464.56,464.56,464.56,463.46,463.46,462.35,462.35,461.25,462.35,461.25,461.25,461.25,460.14,461.25,460.14,460.14,460.14,428.07,392.68,342.92,324.12,323.01,324.12,323.01,321.91,323.01,321.91,321.91,320.80,323.01,320.80,321.91,323.01,320.80,320.80,323.01,321.91,320.80,320.80,320.80,323.01,323.01,321.91,320.80,323.01,320.80,320.80,320.80,320.80,320.80,320.80,319.69,319.69,319.69,320.80
438.02,453.51,463.46,474.52,474.52,482.26,482.26,482.26,482.26,482.26,487.79,487.79,487.79,487.79,487.79,487.79,487.79,487.79,487.79,487.79,487.79,482.26,482.26,482.26,474.52,463.46,463.46,453.51,424.75,424.75,409.27,399.32,399.32,378.31,368.35,368.35,360.61,360.61,360.61,360.61,360.61,355.08,355.08,355.08,355.08,360.61,360.61,368.35,378.31,399.32,399.32,424.75,453.51,474.52,474.52,487.79,499.95,499.95,499.95,502.16,502.16,502.16,502.16,502.16,502.16,501.06,499.95,499.95,499.95,487.79,487.79,474.52,474.52,474.52,463.46,453.51,453.51,438.02,438.02,438.02,438.02,438.02,438.02,438.02,438.02,453.51,453.51,453.51,463.46,463.46,474.52,474.52,482.26,487.79,495.53,495.53,495.53,495.53,487.79,487.79,487.79,487.79,487.79,482.26,482.26,482.26,474.52,474.52,474.52,474.52,474.52,474.52,474.52,474.52,474.52,474.52,474.52,474.52,474.52,474.52,474.52,474.52,474.52,474.52,463.46,463.46,463.46,463.46,453.51,453.51,453.51,453.51,438.02,438.02,438.02,438.02,438.02,438.02,438.02,438.02,438.02,438.02,438.02,438.02,438.02,438.02,438.02,438.02,438.02,453.51,453.51,453.51,453.51,453.51,453.51,453.51,453.51,453.51,453.51,453.51,453.51,453.51,453.51,453.51,453.51,453.51,463.46,463.46,463.46,463.46,463.46,463.46,463.46,463.46,453.51,453.51,453.51,463.46,463.46,463.46,463.46,463.46,463.46,463.46,453.51,453.51,453.51,453.51,438.02,424.75,424.75,424.75,399.32,399.32,399.32,399.32,399.32,399.32,378.31,378.31,378.31,368.35,368.35,368.35,368.35,368.35,368.35,368.35,378.31,378.31,378.31,399.32,399.32,399.32,399.32,399.32,409.27,409.27,409.27,424.75,424.75,424.75,424.75,424.75,424.75,424.75,424.75,424.75,424.75,424.75,424.75,424.75,424.75,424.75,424.75,424.75,424.75,424.75,424.75,424.75,424.75,424.75,424.75,424.75,424.75,424.75,438.02,438.02,438.02,438.02,453.51,453.51,453.51,453.51,453.51,438.02,438.02,438.02,424.75,424.75,409.27,399.32,399.32,378.31,368.35,368.35,355.08,341.81,341.81,339.60,336.28,336.28,334.07,331.86,331.86,331.86,331.86,334.07,389.36,425.86,502.16,502.16,502.16,508.80,508.80,508.80,508.80,508.80,508.80,508.80,515.44,515.44,515.44,515.44,515.44,515.44,515.44,515.44,515.44,515.44,515.44,515.44,515.44,515.44,515.44,515.44,515.44,515.44,515.44,515.44,515.44,515.44,515.44,515.44,515.44,515.44,515.44,515.44,515.44,515.44,515.44,515.44,515.44,518.75,524.28,524.28,524.28,539.76,539.76,543.08,543.08,543.08,549.72,549.72,549.72,549.72,543.08,543.08,539.76,539.76,539.76,539.76,517.65,515.44,508.80,508.80,508.80,505.48,504.38,503.27,502.16,502.16,501.06,501.06,501.06,501.06,501.06,502.16,502.16,495.53,490.00,486.68,483.36,482.26,478.94,477.84,476.73,474.52,473.41,472.31,471.20,470.09,470.09,468.99,467.88,467.88,466.78,466.78,465.67,465.67,465.67,465.67,464.56,465.67,465.67,465.67,464.56,464.56,443.55,401.53,360.61,330.75,323.01,323.01,321.91,323.01,321.91,321.91,324.12,323.01,320.80,324.12,323.01,320.80,323.01,323.01,320.80,321.91,323.01,323.01,323.01,320.80,320.80,321.91,321.91,320.80,321.91,321.91,321.91,319.69,321.91,320.80,321.91,319.69,321.91,319.69
438.02,453.51,463.46,474.52,474.52,482.26,482.26,482.26,482.26,482.26,487.79,487.79,487.79,487.79,487.79,487.79,487.79,487.79,487.79,487.79,487.79,482.26,482.26,482.26,463.46,453.51,453.51,438.02,424.75,424.75,409.27,399.32,399.32,378.31,368.35,368.35,368.35,360.61,360.61,360.61,360.61,355.08,355.08,355.08,355.08,360.61,360.61,360.61,368.35,399.32,399.32,409.27,424.75,463.46,463.46,474.52,495.53,499.95,499.95,501.06,502.16,502.16,502.16,502.16,502.16,501.06,499.95,499.95,499.95,495.53,495.53,482.26,474.52,474.52,463.46,453.51,453.51,438.02,438.02,438.02,438.02,438.02,438.02,438.02,438.02,453.51,453.51,453.51,463.46,463.46,474.52,474.52,482.26,487.79,495.53,495.53,495.53,495.53,487.79,487.79,487.79,487.79,487.79,482.26,482.26,482.26,474.52,474.52,474.52,474.52,474.52,474.52,474.52,474.52,474.52,474.52,474.52,474.52,474.52,474.52,474.52,474.52,474.52,474.52,463.46,463.46,463.46,463.46,453.51,453.51,453.51,453.51,438.02,438.02,438.02,438.02,438.02,438.02,438.02,438.02,438.02,438.02,438.02,438.02,438.02,438.02,438.02,438.02,438.02,438.02,438.02,438.02,438.02,453.51,453.51,453.51,453.51,453.51,453.51,453.51,453.51,453.51,453.51,453.51,453.51,453.51,463.46,463.46,463.46,463.46,463.46,463.46,463.46,463.46,463.46,453.51,453.51,463.46,463.46,463.46,463.46,463.46,463.46,463.46,453.51,453.51,453.51,453.51,438.02,424.75,424.75,424.75,409.27,409.27,399.32,399.32,399.32,399.32,378.31,378.31,368.35,368.35,368.35,360.61,360.61,360.61,360.61,360.61,360.61,368.35,368.35,368.35,378.31,378.31,399.32,399.32,399.32,399.32,399.32,409.27,409.27,409.27,409.27,424.75,424.75,424.75,424.75,424.75,424.75,424.75,424.75,424.75,424.75,424.75,424.75,424.75,424.75,424.75,424.75,424.75,424.75,424.75,424.75,424.75,424.75,424.75,438.02,438.02,438.02,438.02,453.51,453.51,453.51,453.51,453.51,438.02,438.02,438.02,424.75,424.75,409.27,399.32,399.32,399.32,368.35,368.35,360.61,347.34,347.34,339.60,336.28,336.28,334.07,331.86,331.86,330.75,330.75,334.07,388.26,424.75,501.06,501.06,501.06,502.16,505.48,508.80,508.80,508.80,508.80,508.80,508.80,515.44,515.44,515.44,515.44,515.44,515.44,515.44,515.44,515.44,515.44,515.44,515.44,515.44,515.44,515.44,515.44,515.44,515.44,515.44,515.44,515.44,515.44,515.44,515.44,515.44,515.44,515.44,515.44,515.44,515.44,515.44,515.44,518.75,524.28,524.28,524.28,539.76,539.76,543.08,543.08,543.08,549.72,549.72,549.72,549.72,543.08,543.08,539.76,539.76,539.76,539.76,522.07,515.44,508.80,508.80,508.80,508.80,508.80,508.80,508.80,508.80,505.48,505.48,505.48,505.48,505.48,505.48,499.95,497.74,495.53,492.21,490.00,487.79,485.58,483.36,482.26,481.15,478.94,477.84,476.73,475.62,474.52,474.52,472.31,472.31,472.31,471.20,471.20,471.20,470.09,470.09,470.09,470.09,468.99,470.09,468.99,468.99,461.25,419.22,393.79,334.07,324.12,324.12,321.91,323.01,323.01,323.01,321.91,321.91,323.01,321.91,321.91,323.01,321.91,321.91,323.01,323.01,321.91,321.91,321.91,324.12,323.01,320.80,320.80,323.01,320.80,320.80,321.91,323.01,320.80,320.80,319.69,321.91,319.69,319.69
424.75,438.02,453.51,453.51,453.51,463.46,463.46,463.46,474.52,474.52,474.52,474.52,474.52,474.52,474.52,482.26,482.26,482.26,482.26,474.52,474.52,474.52,474.52,474.52,463.46,453.51,453.51,438.02,424.75,424.75,409.27,399.32,399.32,378.31,378.31,378.31,368.35,360.61,360.61,360.61,360.61,355.08,355.08,355.08,355.08,360.61,360.61,360.61,368.35,399.32,399.32,409.27,424.75,463.46,463.46,474.52,495.53,499.95,499.95,501.06,501.06,501.06,501.06,501.06,501.06,501.06,499.95,499.95,499.95,495.53,495.53,482.26,474.52,474.52,463.46,453.51,453.51,453.51,453.51,438.02,438.02,438.02,453.51,453.51,453.51,463.46,463.46,474.52,474.52,482.26,482.26,482.26,495.53,495.53,495.53,495.53,495.53,495.53,495.53,487.79,487.79,487.79,487.79,482.26,482.26,482.26,482.26,482.26,474.52,474.52,474.52,474.52,474.52,474.52,474.52,474.52,474.52,474.52,474.52,474.52,474.52,474.52,463.46,463.46,463.46,463.46,453.51,453.51,453.51,438.02,438.02,438.02,438.02,438.02,438.02,438.02,438.02,424.75,424.75,424.75,438.02,438.02,438.02,438.02,438.02,438.02,438.02,438.02,438.02,438.02,438.02,438.02,438.02,453.51,453.51,453.51,453.51,453.51,453.51,453.51,453.51,453.51,453.51,453.51,453.51,453.51,463.46,463.46,463.46,463.46,463.46,463.46,463.46,463.46,463.46,463.46,463.46,463.46,463.46,463.46,463.46,463.46,463.46,463.46,453.51,453.51,453.51,453.51,438.02,424.75,424.75,424.75,409.27,409.27,399.32,399.32,399.32,378.31,378.31,378.31,368.35,360.61,360.61,360.61,355.08,355.08,355.08,355.08,355.08,360.61,360.61,360.61,368.35,368.35,368.35,378.31,399.32,399.32,399.32,399.32,399.32,399.32,409.27,409.27,409.27,409.27,424.75,424.75,424.75,424.75,424.75,424.75,424.75,424.75,424.75,424.75,424.75,424.75,424.75,424.75,424.75,424.75,424.75,424.75,424.75,424.75,424.75,424.75,438.02,438.02,438.02,438.02,438.02,453.51,453.51,438.02,438.02,438.02,424.75,424.75,409.27,399.32,399.32,399.32,368.35,368.35,360.61,347.34,347.34,339.60,336.28,336.28,334.07,331.86,331.86,330.75,330.75,334.07,383.84,409.27,501.06,501.06,501.06,502.16,505.48,508.80,508.80,508.80,508.80,508.80,508.80,515.44,515.44,515.44,515.44,515.44,515.44,515.44,515.44,515.44,515.44,515.44,515.44,515.44,515.44,515.44,515.44,515.44,515.44,515.44,515.44,515.44,515.44,515.44,515.44,515.44,515.44,515.44,515.44,515.44,515.44,518.75,518.75,524.28,524.28,539.76,539.76,539.76,539.76,543.08,543.08,549.72,549.72,549.72,549.72,549.72,549.72,549.72,539.76,539.76,539.76,539.76,525.39,518.75,515.44,515.44,515.44,508.80,508.80,508.80,508.80,508.80,505.48,505.48,505.48,505.48,505.48,505.48,505.48,503.27,501.06,498.85,496.64,493.32,492.21,490.00,487.79,485.58,484.47,483.36,482.26,481.15,481.15,478.94,478.94,477.84,477.84,476.73,476.73,476.73,475.62,475.62,475.62,474.52,474.52,474.52,474.52,474.52,472.31,450.19,399.32,362.82,330.75,324.12,324.12,324.12,321.91,321.91,324.12,321.91,321.91,324.12,323.01,321.91,321.91,324.12,321.91,321.91,321.91,323.01,321.91,321.91,321.91,323.01,323.01,320.80,323.01,321.91,320.80,320.80,323.01,321.91,320.80,319.69,319.69,321.91
409.27,409.27,424.75,424.75,424.75,438.02,438.02,438.02,453.51,453.51,453.51,453.51,463.46,463.46,463.46,463.46,463.46,463.46,474.52,463.46,463.46,463.46,463.46,463.46,453.51,453.51,453.51,438.02,424.75,424.75,409.27,399.32,399.32,378.31,378.31,378.31,368.35,360.61,360.61,360.61,360.61,355.08,355.08,355.08,355.08,355.08,355.08,360.61,368.35,378.31,378.31,399.32,424.75,453.51,453.51,474.52,482.26,495.53,495.53,499.95,501.06,501.06,501.06,501.06,501.06,501.06,499.95,499.95,499.95,495.53,495.53,482.26,474.52,474.52,463.46,463.46,463.46,453.51,453.51,453.51,453.51,453.51,463.46,474.52,474.52,474.52,482.26,482.26,482.26,487.79,487.79,487.79,495.53,499.95,499.95,499.95,495.53,495.53,495.53,495.53,495.53,495.53,487.79,487.79,487.79,482.26,482.26,482.26,474.52,474.52,474.52,474.52,474.52,474.52,474.52,474.52,474.52,474.52,474.52,463.46,463.46,463.46,463.46,463.46,453.51,453.51,453.51,453.51,438.02,438.02,438.02,438.02,424.75,424.75,424.75,424.75,424.75,424.75,424.75,424.75,424.75,424.75,424.75,424.75,424.75,438.02,438.02,438.02,438.02,438.02,438.02,438.02,438.02,438.02,438.02,453.51,453.51,453.51,453.51,453.51,453.51,453.51,453.51,453.51,453.51,453.51,463.46,463.46,463.46,463.46,463.46,463.46,463.46,463.46,463.46,453.51,453.51,453.51,463.46,463.46,463.46,463.46,463.46,463.46,453.51,453.51,453.51,453.51,438.02,438.02,438.02,424.75,409.27,409.27,399.32,399.32,399.32,378.31,378.31,378.31,368.35,360.61,360.61,360.61,355.08,355.08,355.08,355.08,355.08,360.61,360.61,360.61,368.35,368.35,368.35,378.31,399.32,399.32,399.32,399.32,399.32,399.32,399.32,399.32,399.32,409.27,409.27,409.27,409.27,424.75,409.27,409.27,409.27,409.27,409.27,409.27,409.27,409.27,409.27,409.27,409.27,409.27,409.27,409.27,409.27,424.75,424.75,424.75,424.75,438.02,438.02,438.02,438.02,438.02,438.02,438.02,438.02,438.02,424.75,424.75,424.75,409.27,399.32,399.32,378.31,378.31,360.61,347.34,347.34,339.60,336.28,336.28,334.07,331.86,331.86,330.75,330.75,334.07,339.60,339.60,501.06,482.26,482.26,501.06,505.48,505.48,505.48,505.48,508.80,508.80,508.80,508.80,508.80,515.44,515.44,515.44,515.44,515.44,515.44,515.44,515.44,515.44,515.44,515.44,515.44,515.44,515.44,515.44,515.44,515.44,515.44,515.44,515.44,515.44,515.44,515.44,515.44,515.44,515.44,515.44,515.44,518.75,518.75,524.28,524.28,539.76,539.76,539.76,543.08,543.08,543.08,549.72,550.82,550.82,550.82,550.82,550.82,549.72,543.08,543.08,539.76,539.76,529.81,524.28,518.75,518.75,515.44,515.44,515.44,515.44,515.44,515.44,515.44,515.44,515.44,515.44,515.44,515.44,513.22,512.12,508.80,506.59,504.38,501.06,498.85,497.74,495.53,493.32,492.21,490.00,488.89,487.79,486.68,486.68,485.58,485.58,484.47,483.36,483.36,482.26,482.26,482.26,481.15,481.15,481.15,481.15,480.05,481.15,478.94,470.09,426.96,389.36,334.07,325.22,323.01,324.12,321.91,324.12,321.91,323.01,324.12,323.01,321.91,324.12,323.01,323.01,320.80,324.12,321.91,321.91,323.01,324.12,321.91,321.91,321.91,321.91,320.80,320.80,323.01,321.91,320.80,320.80,321.91,321.91,321.91,319.69
409.27,409.27,424.75,424.75,424.75,438.02,438.02,438.02,453.51,453.51,453.51,438.02,438.02,453.51,453.51,453.51,453.51,453.51,453.51,453.51,453.51,453.51,453.51,453.51,453.51,438.02,438.02,438.02,424.75,424.75,409.27,399.32,399.32,399.32,378.31,378.31,368.35,368.35,368.35,360.61,360.61,355.08,355.08,355.08,355.08,355.08,355.08,360.61,360.61,360.61,378.31,399.32,409.27,409.27,438.02,463.46,474.52,487.79,487.79,499.95,499.95,501.06,501.06,501.06,501.06,499.95,499.95,499.95,499.95,487.79,487.79,482.26,474.52,474.52,463.46,463.46,463.46,453.51,453.51,453.51,453.51,453.51,463.46,474.52,474.52,474.52,482.26,482.26,482.26,487.79,487.79,487.79,495.53,499.95,499.95,499.95,499.95,499.95,495.53,495.53,495.53,495.53,495.53,487.79,487.79,482.26,482.26,482.26,474.52,474.52,474.52,474.52,474.52,474.52,474.52,474.52,474.52,474.52,474.52,463.46,463.46,463.46,463.46,463.46,453.51,453.51,453.51,453.51,438.02,438.02,438.02,438.02,424.75,424.75,424.75,424.75,424.75,424.75,424.75,424.75,424.75,424.75,424.75,424.75,424.75,424.75,424.75,424.75,424.75,438.02,438.02,438.02,438.02,438.02,438.02,438.02,438.02,438.02,453.51,453.51,453.51,453.51,453.51,453.51,453.51,453.51,453.51,453.51,463.46,463.46,463.46,463.46,463.46,463.46,453.51,453.51,453.51,453.51,453.51,463.46,463.46,463.46,463.46,463.46,453.51,453.51,453.51,453.51,438.02,438.02,438.02,424.75,409.27,409.27,399.32,399.32,399.32,378.31,378.31,378.31,368.35,360.61,360.61,355.08,355.08,355.08,355.08,355.08,355.08,355.08,355.08,355.08,360.61,360.61,360.61,368.35,368.35,378.31,378.31,399.32,399.32,399.32,399.32,399.32,399.32,409.27,409.27,409.27,409.27,424.75,409.27,409.27,409.27,409.27,409.27,409.27,409.27,409.27,409.27,409.27,409.27,409.27,409.27,409.27,409.27,424.75,424.75,424.75,424.75,438.02,438.02,438.02,438.02,438.02,438.02,438.02,453.51,438.02,438.02,424.75,424.75,409.27,399.32,399.32,378.31,378.31,360.61,355.08,355.08,341.81,336.28,336.28,334.07,331.86,331.86,330.75,330.75,334.07,339.60,339.60,441.34,482.26,482.26,499.95,505.48,505.48,505.48,505.48,505.48,505.48,508.80,508.80,508.80,508.80,508.80,515.44,515.44,515.44,515.44,515.44,515.44,515.44,515.44,515.44,515.44,515.44,515.44,515.44,515.44,515.44,515.44,515.44,515.44,515.44,515.44,515.44,515.44,515.44,515.44,515.44,515.44,518.75,518.75,524.28,524.28,539.76,539.76,539.76,543.08,543.08,543.08,549.72,550.82,550.82,550.82,550.82,550.82,549.72,543.08,543.08,543.08,539.76,533.13,525.39,518.75,518.75,518.75,515.44,515.44,515.44,515.44,515.44,515.44,515.44,518.75,518.75,518.75,518.75,516.54,516.54,515.44,514.33,513.22,511.01,509.91,507.69,505.48,503.27,501.06,499.95,498.85,497.74,496.64,495.53,494.42,493.32,492.21,492.21,491.11,490.00,490.00,488.89,488.89,488.89,488.89,487.79,487.79,487.79,486.68,483.36,454.61,407.06,357.29,326.33,325.22,324.12,323.01,321.91,324.12,321.91,321.91,321.91,324.12,323.01,323.01,323.01,324.12,323.01,324.12,323.01,321.91,321.91,321.91,324.12,321.91,323.01,323.01,323.01,320.80,320.80,321.91,323.01,320.80,320.80,320.80,320.80
399.32,399.32,399.32,399.32,399.32,409.27,409.27,409.27,424.75,424.75,424.75,438.02,438.02,453.51,453.51,453.51,453.51,453.51,453.51,453.51,453.51,453.51,453.51,453.51,453.51,438.02,438.02,438.02,424.75,424.75,409.27,399.32,399.32,399.32,378.31,378.31,368.35,368.35,368.35,360.61,360.61,355.08,355.08,355.08,355.08,355.08,355.08,360.61,360.61,360.61,368.35,399.32,399.32,399.32,424.75,453.51,474.52,474.52,482.26,495.53,499.95,499.95,499.95,499.95,499.95,499.95,499.95,499.95,495.53,487.79,487.79,482.26,474.52,474.52,474.52,463.46,463.46,463.46,463.46,463.46,463.46,463.46,474.52,482.26,482.26,486.68,495.53,495.53,495.53,495.53,495.53,495.53,499.95,499.95,499.95,499.95,499.95,499.95,495.53,495.53,495.53,495.53,495.53,487.79,487.79,482.26,482.26,482.26,474.52,474.52,474.52,474.52,474.52,474.52,474.52,474.52,463.46,463.46,463.46,463.46,463.46,463.46,453.51,453.51,453.51,453.51,453.51,438.02,438.02,438.02,438.02,424.75,424.75,424.75,424.75,424.75,424.75,424.75,424.75,424.75,424.75,424.75,424.75,424.75,424.75,424.75,424.75,424.75,424.75,438.02,438.02,438.02,438.02,438.02,438.02,438.02,438.02,438.02,453.51,453.51,453.51,453.51,453.51,453.51,453.51,453.51,453.51,453.51,463.46,453.51,453.51,453.51,453.51,463.46,453.51,453.51,453.51,453.51,453.51,453.51,453.51,453.51,453.51,453.51,453.51,453.51,453.51,453.51,453.51,438.02,438.02,424.75,424.75,424.75,399.32,399.32,399.32,399.32,378.31,378.31,368.35,360.61,360.61,355.08,355.08,355.08,347.34,347.34,347.34,347.34,347.34,355.08,355.08,355.08,360.61,360.61,360.61,368.35,378.31,378.31,378.31,399.32,399.32,399.32,399.32,399.32,409.27,409.27,409.27,409.27,409.27,409.27,409.27,409.27,409.27,409.27,409.27,409.27,409.27,409.27,409.27,409.27,409.27,409.27,409.27,409.27,424.75,424.75,424.75,424.75,424.75,438.02,438.02,438.02,438.02,453.51,453.51,438.02,438.02,438.02,424.75,424.75,409.27,409.27,399.32,399.32,368.35,355.08,355.08,341.81,336.28,336.28,334.07,331.86,331.86,330.75,330.75,334.07,339.60,339.60,426.96,482.26,482.26,499.95,505.48,505.48,505.48,505.48,505.48,505.48,508.80,508.80,508.80,508.80,508.80,515.44,515.44,515.44,515.44,515.44,515.44,515.44,515.44,515.44,515.44,515.44,515.44,515.44,515.44,515.44,515.44,515.44,515.44,515.44,515.44,515.44,515.44,515.44,515.44,515.44,515.44,518.75,518.75,524.28,524.28,539.76,539.76,539.76,543.08,549.72,549.72,550.82,550.82,550.82,550.82,550.82,550.82,550.82,543.08,543.08,543.08,540.87,537.55,539.76,518.75,518.75,518.75,515.44,515.44,515.44,515.44,515.44,515.44,515.44,518.75,518.75,518.75,518.75,517.65,518.75,518.75,518.75,518.75,518.75,518.75,518.75,518.75,517.65,516.54,516.54,515.44,514.33,514.33,513.22,512.12,511.01,511.01,505.48,504.38,503.27,502.16,501.06,501.06,499.95,497.74,497.74,496.64,496.64,496.64,494.42,481.15,435.81,379.41,332.96,326.33,324.12,323.01,324.12,323.01,323.01,324.12,324.12,323.01,321.91,324.12,321.91,321.91,321.91,321.91,321.91,324.12,324.12,321.91,321.91,321.91,321.91,321.91,321.91,323.01,323.01,321.91,320.80,320.80,321.91,320.80,320.80
378.31,399.32,399.32,399.32,399.32,399.32,399.32,399.32,399.32,409.27,409.27,409.27,424.75,424.75,424.75,424.75,438.02,438.02,438.02,438.02,438.02,438.02,438.02,438.02,438.02,438.02,438.02,424.75,424.75,424.75,409.27,399.32,399.32,399.32,378.31,378.31,368.35,368.35,368.35,360.61,360.61,355.08,355.08,355.08,355.08,355.08,355.08,360.61,360.61,360.61,368.35,399.32,399.32,399.32,424.75,453.51,474.52,474.52,482.26,495.53,499.95,499.95,499.95,499.95,499.95,499.95,499.95,499.95,495.53,487.79,487.79,482.26,474.52,474.52,474.52,474.52,474.52,463.46,463.46,463.46,474.52,474.52,474.52,480.05,484.47,499.95,495.53,495.53,495.53,499.95,499.95,499.95,499.95,499.95,499.95,499.95,499.95,499.95,499.95,495.53,495.53,495.53,495.53,487.79,487.79,482.26,482.26,482.26,474.52,474.52,482.26,482.26,474.52,474.52,474.52,474.52,463.46,463.46,463.46,453.51,453.51,453.51,453.51,453.51,453.51,453.51,453.51,438.02,438.02,438.02,424.75,424.75,424.75,424.75,424.75,424.75,424.75,424.75,424.75,424.75,424.75,424.75,424.75,424.75,424.75,424.75,424.75,424.75,424.75,438.02,438.02,438.02,438.02,438.02,438.02,438.02,438.02,438.02,453.51,453.51,453.51,453.51,453.51,453.51,453.51,453.51,453.51,453.51,453.51,453.51,453.51,453.51,453.51,463.46,453.51,453.51,453.51,453.51,453.51,453.51,453.51,453.51,453.51,453.51,453.51,453.51,453.51,453.51,453.51,438.02,438.02,438.02,424.75,424.75,409.27,399.32,399.32,399.32,378.31,378.31,368.35,360.61,360.61,355.08,355.08,355.08,347.34,347.34,347.34,347.34,347.34,347.34,347.34,347.34,355.08,355.08,355.08,360.61,360.61,368.35,368.35,378.31,399.32,399.32,399.32,399.32,399.32,399.32,399.32,409.27,409.27,409.27,409.27,409.27,399.32,399.32,399.32,399.32,399.32,399.32,399.32,399.32,399.32,399.32,399.32,409.27,409.27,409.27,424.75,424.75,424.75,438.02,438.02,453.51,453.51,453.51,453.51,438.02,438.02,438.02,424.75,424.75,409.27,409.27,399.32,399.32,368.35,355.08,355.08,341.81,336.28,336.28,334.07,331.86,331.86,330.75,330.75,334.07,339.60,339.60,419.22,474.52,474.52,499.95,505.48,505.48,505.48,505.48,505.48,505.48,508.80,508.80,508.80,508.80,508.80,515.44,515.44,515.44,515.44,515.44,515.44,515.44,515.44,515.44,515.44,515.44,515.44,515.44,515.44,515.44,515.44,515.44,515.44,515.44,515.44,515.44,515.44,515.44,515.44,515.44,518.75,518.75,518.75,524.28,539.76,539.76,539.76,539.76,543.08,549.72,549.72,550.82,550.82,550.82,550.82,549.72,549.72,550.82,549.72,549.72,549.72,543.08,539.76,539.76,524.28,524.28,518.75,518.75,518.75,518.75,518.75,518.75,518.75,518.75,524.28,524.28,518.75,518.75,519.86,520.96,522.07,523.18,524.28,526.49,526.49,527.60,527.60,528.71,528.71,527.60,527.60,527.60,527.60,527.60,526.49,526.49,525.39,523.18,520.96,519.86,518.75,517.65,517.65,516.54,515.44,514.33,513.22,513.22,512.12,511.01,502.16,462.35,412.59,367.25,327.44,325.22,324.12,323.01,324.12,324.12,323.01,321.91,323.01,324.12,323.01,321.91,324.12,324.12,324.12,323.01,321.91,321.91,324.12,323.01,324.12,321.91,324.12,321.91,321.91,321.91,320.80,323.01,320.80,323.01,319.69,323.01
378.31,378.31,378.31,378.31,378.31,399.32,399.32,399.32,399.32,399.32,399.32,399.32,399.32,399.32,409.27,409.27,409.27,409.27,424.75,424.75,424.75,424.75,424.75,424.75,424.75,424.75,424.75,424.75,424.75,424.75,409.27,399.32,399.32,399.32,378.31,378.31,378.31,368.35,368.35,360.61,360.61,360.61,360.61,355.08,355.08,355.08,355.08,360.61,360.61,360.61,368.35,378.31,399.32,399.32,409.27,438.02,463.46,463.46,474.52,487.79,495.53,495.53,499.95,499.95,499.95,499.95,495.53,495.53,495.53,487.79,487.79,482.26,474.52,474.52,474.52,474.52,474.52,463.46,463.46,463.46,474.52,474.52,474.52,483.36,485.58,499.95,499.95,499.95,499.95,499.95,499.95,499.95,499.95,499.95,499.95,499.95,499.95,499.95,499.95,499.95,499.95,495.53,495.53,487.79,487.79,487.79,482.26,482.26,482.26,482.26,482.26,482.26,474.52,474.52,474.52,474.52,463.46,463.46,463.46,453.51,453.51,453.51,453.51,453.51,438.02,438.02,438.02,438.02,438.02,438.02,424.75,424.75,424.75,424.75,424.75,424.75,424.75,424.75,424.75,424.75,424.75,424.75,424.75,424.75,424.75,424.75,424.75,424.75,424.75,424.75,424.75,438.02,438.02,438.02,438.02,438.02,438.02,438.02,453.51,453.51,453.51,453.51,453.51,453.51,453.51,453.51,453.51,453.51,453.51,453.51,453.51,453.51,453.51,453.51,453.51,453.51,453.51,453.51,453.51,453.51,453.51,453.51,453.51,453.51,453.51,453.51,453.51,453.51,453.51,438.02,438.02,438.02,424.75,424.75,409.27,399.32,399.32,399.32,378.31,378.31,368.35,360.61,360.61,355.08,347.34,347.34,347.34,347.34,347.34,347.34,347.34,347.34,347.34,347.34,355.08,355.08,355.08,360.61,360.61,368.35,368.35,378.31,399.32,399.32,399.32,399.32,399.32,399.32,399.32,409.27,409.27,409.27,409.27,409.27,399.32,399.32,399.32,399.32,399.32,399.32,399.32,399.32,399.32,399.32,399.32,399.32,409.27,409.27,424.75,424.75,424.75,424.75,438.02,453.51,453.51,453.51,453.51,453.51,438.02,438.02,438.02,424.75,409.27,409.27,399.32,399.32,368.35,355.08,355.08,355.08,336.28,336.28,334.07,331.86,331.86,330.75,330.75,334.07,341.81,341.81,410.38,463.46,463.46,495.53,502.16,502.16,502.16,505.48,505.48,505.48,508.80,508.80,508.80,508.80,508.80,508.80,508.80,515.44,515.44,515.44,515.44,515.44,515.44,515.44,515.44,515.44,515.44,515.44,515.44,515.44,515.44,515.44,515.44,515.44,515.44,515.44,515.44,515.44,515.44,515.44,518.75,518.75,518.75,524.28,539.76,539.76,539.76,543.08,549.72,549.72,549.72,550.82,549.72,549.72,549.72,549.72,549.72,550.82,549.72,549.72,549.72,544.19,541.98,539.76,539.76,539.76,524.28,524.28,524.28,524.28,524.28,524.28,524.28,524.28,524.28,524.28,524.28,524.28,524.28,525.39,526.49,529.81,533.13,534.24,535.34,536.45,536.45,536.45,536.45,536.45,536.45,536.45,536.45,535.34,534.24,534.24,534.24,533.13,532.02,530.92,530.92,529.81,528.71,527.60,526.49,525.39,525.39,524.28,523.18,523.18,522.07,503.27,453.51,409.27,335.18,326.33,324.12,324.12,324.12,323.01,324.12,324.12,321.91,321.91,323.01,324.12,323.01,323.01,323.01,323.01,324.12,324.12,321.91,321.91,323.01,321.91,321.91,321.91,324.12,323.01,321.91,320.80,321.91,320.80,321.91,320.80
378.31,378.31,378.31,378.31,378.31,399.32,399.32,399.32,399.32,399.32,399.32,399.32,399.32,399.32,409.27,409.27,409.27,409.27,424.75,424.75,424.75,424.75,424.75,424.75,424.75,424.75,424.75,424.75,424.75,424.75,409.27,409.27,409.27,399.32,399.32,399.32,378.31,368.35,368.35,368.35,360.61,360.61,360.61,360.61,360.61,360.61,360.61,360.61,360.61,360.61,368.35,378.31,399.32,399.32,409.27,424.75,453.51,453.51,463.46,482.26,487.79,487.79,495.53,495.53,495.53,495.53,495.53,495.53,487.79,482.26,482.26,474.52,474.52,474.52,474.52,474.52,474.52,463.46,463.46,474.52,474.52,474.52,482.26,487.79,487.79,495.53,499.95,499.95,499.95,499.95,499.95,499.95,499.95,499.95,499.95,499.95,499.95,499.95,499.95,499.95,499.95,495.53,495.53,487.79,487.79,487.79,482.26,482.26,482.26,482.26,482.26,482.26,474.52,474.52,474.52,474.52,463.46,463.46,463.46,453.51,453.51,453.51,453.51,453.51,438.02,438.02,438.02,438.02,438.02,438.02,424.75,424.75,424.75,424.75,424.75,424.75,424.75,424.75,424.75,424.75,424.75,424.75,424.75,424.75,424.75,424.75,424.75,424.75,424.75,424.75,424.75,438.02,438.02,438.02,438.02,438.02,438.02,438.02,453.51,453.51,453.51,453.51,453.51,453.51,453.51,453.51,453.51,453.51,453.51,453.51,453.51,453.51,453.51,453.51,453.51,453.51,453.51,453.51,453.51,453.51,453.51,453.51,463.46,463.46,453.51,453.51,453.51,453.51,453.51,453.51,453.51,438.02,424.75,424.75,409.27,399.32,399.32,399.32,378.31,378.31,368.35,360.61,360.61,355.08,347.34,347.34,347.34,341.81,341.81,341.81,341.81,347.34,347.34,347.34,347.34,355.08,355.08,355.08,360.61,360.61,360.61,368.35,378.31,378.31,378.31,399.32,399.32,399.32,399.32,399.32,399.32,399.32,399.32,399.32,399.32,399.32,399.32,399.32,399.32,399.32,399.32,399.32,399.32,399.32,399.32,399.32,409.27,409.27,424.75,424.75,424.75,424.75,438.02,453.51,453.51,453.51,453.51,453.51,453.51,438.02,438.02,424.75,424.75,424.75,399.32,399.32,368.35,355.08,355.08,355.08,336.28,336.28,334.07,331.86,331.86,330.75,330.75,334.07,341.81,341.81,404.85,453.51,453.51,495.53,502.16,502.16,502.16,505.48,505.48,505.48,505.48,508.80,508.80,508.80,508.80,508.80,508.80,508.80,508.80,508.80,515.44,515.44,515.44,515.44,515.44,515.44,515.44,515.44,515.44,515.44,515.44,515.44,515.44,515.44,515.44,515.44,515.44,515.44,515.44,515.44,518.75,518.75,518.75,524.28,539.76,539.76,539.76,543.08,549.72,549.72,549.72,550.82,549.72,549.72,549.72,549.72,549.72,550.82,549.72,549.72,543.08,543.08,544.19,539.76,539.76,539.76,524.28,524.28,524.28,524.28,524.28,524.28,524.28,524.28,524.28,524.28,524.28,524.28,528.71,532.02,536.45,538.66,539.76,539.76,540.87,539.76,540.87,540.87,540.87,539.76,539.76,539.76,539.76,539.76,538.66,538.66,538.66,537.55,537.55,537.55,536.45,536.45,535.34,535.34,534.24,534.24,533.13,533.13,532.02,530.92,529.81,529.81,493.32,436.92,363.93,331.86,325.22,324.12,325.22,324.12,324.12,323.01,325.22,324.12,324.12,321.91,321.91,321.91,325.22,323.01,323.01,321.91,325.22,324.12,321.91,324.12,324.12,323.01,321.91,321.91,321.91,323.01,320.80,323.01,320.80,321.91
378.31,378.31,378.31,378.31,378.31,378.31,378.31,378.31,378.31,378.31,378.31,399.32,399.32,399.32,399.32,399.32,399.32,399.32,409.27,409.27,409.27,409.27,424.75,424.75,424.75,424.75,424.75,424.75,424.75,424.75,409.27,409.27,409.27,399.32,399.32,399.32,378.31,378.31,378.31,368.35,368.35,360.61,360.61,360.61,360.61,360.61,360.61,360.61,360.61,360.61,368.35,378.31,399.32,399.32,409.27,424.75,453.51,453.51,463.46,482.26,487.79,487.79,495.53,495.53,495.53,495.53,495.53,495.53,487.79,482.26,482.26,474.52,474.52,474.52,474.52,474.52,474.52,474.52,474.52,474.52,474.52,474.52,482.26,487.79,487.79,495.53,495.53,499.95,499.95,499.95,499.95,499.95,499.95,499.95,499.95,499.95,499.95,499.95,499.95,499.95,499.95,495.53,495.53,487.79,487.79,487.79,482.26,482.26,482.26,482.26,482.26,482.26,474.52,474.52,474.52,463.46,463.46,463.46,463.46,453.51,453.51,453.51,453.51,453.51,438.02,438.02,438.02,438.02,438.02,438.02,424.75,424.75,424.75,424.75,424.75,424.75,424.75,424.75,424.75,424.75,424.75,424.75,424.75,424.75,424.75,424.75,424.75,424.75,424.75,424.75,424.75,438.02,438.02,438.02,438.02,438.02,438.02,438.02,453.51,453.51,453.51,453.51,453.51,453.51,453.51,453.51,453.51,453.51,453.51,453.51,453.51,453.51,453.51,453.51,453.51,453.51,453.51,453.51,453.51,453.51,453.51,453.51,463.46,463.46,453.51,453.51,453.51,453.51,453.51,453.51,453.51,438.02,438.02,438.02,409.27,399.32,399.32,399.32,378.31,378.31,368.35,360.61,360.61,355.08,347.34,347.34,347.34,341.81,341.81,341.81,341.81,341.81,341.81,341.81,347.34,347.34,347.34,355.08,355.08,355.08,360.61,360.61,368.35,368.35,378.31,378.31,399.32,399.32,399.32,399.32,399.32,399.32,399.32,399.32,399.32,399.32,399.32,399.32,399.32,399.32,399.32,399.32,399.32,399.32,399.32,399.32,409.27,409.27,424.75,424.75,424.75,424.75,438.02,453.51,453.51,453.51,453.51,453.51,453.51,438.02,438.02,424.75,424.75,424.75,399.32,399.32,368.35,355.08,355.08,355.08,336.28,336.28,334.07,331.86,331.86,330.75,330.75,334.07,341.81,341.81,402.64,453.51,453.51,495.53,502.16,502.16,502.16,505.48,505.48,505.48,505.48,508.80,508.80,508.80,508.80,508.80,508.80,508.80,508.80,508.80,515.44,515.44,515.44,515.44,515.44,515.44,515.44,515.44,515.44,515.44,515.44,515.44,515.44,515.44,515.44,515.44,515.44,515.44,515.44,515.44,518.75,524.28,524.28,524.28,539.76,539.76,539.76,543.08,549.72,550.82,550.82,549.72,549.72,549.72,549.72,549.72,549.72,549.72,550.82,550.82,543.08,543.08,549.72,543.08,539.76,539.76,539.76,539.76,539.76,539.76,539.76,543.08,543.08,543.08,549.72,549.72,543.08,543.08,539.76,544.19,544.19,543.08,543.08,543.08,543.08,543.08,543.08,541.98,541.98,541.98,543.08,541.98,541.98,541.98,541.98,540.87,540.87,540.87,539.76,539.76,539.76,538.66,538.66,538.66,538.66,537.55,537.55,537.55,536.45,536.45,535.34,535.34,520.96,472.31,409.27,362.82,330.75,325.22,324.12,324.12,324.12,324.12,324.12,323.01,323.01,324.12,324.12,325.22,323.01,323.01,325.22,323.01,323.01,323.01,324.12,323.01,323.01,321.91,323.01,323.01,321.91,321.91,321.91,321.91,320.80,321.91
378.31,378.31,378.31,378.31,378.31,378.31,378.31,378.31,378.31,378.31,378.31,378.31,399.32,399.32,399.32,399.32,399.32,399.32,399.32,399.32,399.32,409.27,409.27,409.27,409.27,424.75,424.75,424.75,409.27,409.27,409.27,399.32,399.32,399.32,399.32,399.32,378.31,378.31,378.31,368.35,368.35,360.61,360.61,360.61,360.61,360.61,360.61,360.61,360.61,360.61,368.35,378.31,399.32,399.32,399.32,424.75,438.02,438.02,453.51,474.52,482.26,482.26,487.79,495.53,495.53,495.53,487.79,487.79,487.79,482.26,482.26,474.52,474.52,474.52,474.52,474.52,474.52,474.52,474.52,474.52,474.52,474.52,482.26,487.79,487.79,495.53,495.53,499.95,499.95,499.95,499.95,499.95,499.95,499.95,499.95,499.95,499.95,499.95,499.95,499.95,499.95,495.53,495.53,495.53,495.53,487.79,487.79,487.79,482.26,482.26,482.26,482.26,474.52,474.52,474.52,463.46,463.46,463.46,453.51,453.51,453.51,453.51,453.51,453.51,438.02,438.02,438.02,438.02,424.75,424.75,424.75,424.75,424.75,424.75,424.75,424.75,424.75,424.75,424.75,424.75,424.75,424.75,424.75,424.75,424.75,424.75,424.75,424.75,424.75,424.75,424.75,438.02,438.02,438.02,438.02,438.02,438.02,438.02,453.51,453.51,453.51,453.51,453.51,453.51,453.51,453.51,453.51,453.51,453.51,453.51,453.51,453.51,453.51,453.51,453.51,453.51,453.51,453.51,453.51,453.51,453.51,453.51,463.46,463.46,453.51,453.51,453.51,453.51,453.51,453.51,453.51,453.51,438.02,438.02,424.75,399.32,399.32,399.32,378.31,378.31,368.35,360.61,360.61,355.08,347.34,347.34,347.34,341.81,341.81,341.81,341.81,341.81,341.81,341.81,347.34,347.34,347.34,355.08,355.08,355.08,360.61,360.61,368.35,368.35,378.31,378.31,399.32,399.32,399.32,399.32,399.32,399.32,399.32,399.32,399.32,399.32,399.32,399.32,399.32,399.32,399.32,399.32,399.32,399.32,399.32,399.32,409.27,409.27,424.75,424.75,424.75,438.02,453.51,453.51,453.51,453.51,463.46,453.51,453.51,453.51,453.51,438.02,424.75,424.75,399.32,399.32,368.35,368.35,358.40,350.66,336.28,336.28,334.07,331.86,331.86,330.75,330.75,334.07,334.07,339.60,397.11,453.51,453.51,487.79,487.79,501.06,502.16,502.16,505.48,505.48,505.48,508.80,508.80,508.80,508.80,508.80,508.80,508.80,508.80,508.80,515.44,515.44,515.44,515.44,515.44,515.44,515.44,515.44,515.44,515.44,515.44,515.44,515.44,515.44,515.44,515.44,515.44,515.44,518.75,518.75,518.75,524.28,524.28,539.76,539.76,539.76,539.76,543.08,549.72,550.82,550.82,549.72,549.72,549.72,549.72,549.72,549.72,549.72,550.82,550.82,549.72,549.72,549.72,543.08,543.08,543.08,543.08,549.72,549.72,549.72,549.72,550.82,549.72,549.72,549.72,549.72,549.72,549.72,549.72,546.40,544.19,545.29,544.19,544.19,544.19,544.19,544.19,544.19,544.19,544.19,543.08,543.08,543.08,543.08,543.08,541.98,543.08,541.98,541.98,541.98,541.98,541.98,541.98,540.87,540.87,540.87,539.76,539.76,539.76,538.66,538.66,537.55,537.55,515.44,462.35,411.48,368.35,327.44,325.22,325.22,323.01,325.22,323.01,325.22,323.01,323.01,323.01,323.01,323.01,324.12,323.01,323.01,325.22,323.01,323.01,321.91,325.22,323.01,323.01,321.91,323.01,320.80,321.91,323.01,323.01,320.80
378.31,378.31,378.31,378.31,378.31,378.31,378.31,378.31,378.31,378.31,378.31,378.31,399.32,399.32,399.32,399.32,399.32,399.32,399.32,399.32,399.32,399.32,399.32,399.32,409.27,409.27,409.27,409.27,409.27,409.27,409.27,399.32,399.32,399.32,399.32,399.32,399.32,378.31,378.31,378.31,368.35,360.61,360.61,360.61,360.61,360.61,360.61,360.61,360.61,360.61,368.35,378.31,399.32,399.32,399.32,409.27,424.75,424.75,453.51,463.46,474.52,474.52,482.26,487.79,487.79,487.79,482.26,482.26,482.26,474.52,474.52,474.52,474.52,474.52,474.52,474.52,474.52,463.46,463.46,474.52,474.52,474.52,482.26,487.79,487.79,495.53,495.53,499.95,499.95,499.95,499.95,499.95,499.95,499.95,499.95,499.95,499.95,499.95,499.95,499.95,499.95,495.53,495.53,495.53,495.53,487.79,487.79,487.79,482.26,482.26,482.26,482.26,474.52,474.52,474.52,463.46,463.46,463.46,453.51,453.51,453.51,453.51,453.51,453.51,438.02,438.02,438.02,438.02,424.75,424.75,424.75,424.75,424.75,424.75,424.75,424.75,424.75,424.75,424.75,424.75,424.75,424.75,424.75,424.75,424.75,424.75,424.75,424.75,424.75,424.75,424.75,438.02,438.02,438.02,438.02,438.02,438.02,438.02,453.51,453.51,453.51,453.51,453.51,453.51,453.51,453.51,453.51,453.51,453.51,453.51,453.51,453.51,453.51,453.51,453.51,453.51,453.51,453.51,453.51,453.51,453.51,453.51,463.46,463.46,453.51,453.51,455.72,463.46,463.46,453.51,453.51,453.51,438.02,438.02,424.75,399.32,399.32,399.32,378.31,378.31,368.35,360.61,360.61,355.08,347.34,347.34,347.34,341.81,341.81,341.81,341.81,341.81,341.81,341.81,347.34,347.34,347.34,347.34,355.08,355.08,355.08,360.61,360.61,360.61,368.35,378.31,378.31,378.31,399.32,399.32,399.32,399.32,399.32,399.32,399.32,399.32,399.32,399.32,399.32,399.32,399.32,399.32,399.32,399.32,399.32,399.32,409.27,409.27,424.75,424.75,424.75,438.02,453.51,453.51,453.51,463.46,463.46,463.46,453.51,453.51,453.51,438.02,424.75,424.75,399.32,399.32,368.35,355.08,355.08,355.08,336.28,336.28,334.07,331.86,331.86,330.75,330.75,334.07,334.07,339.60,391.58,438.02,438.02,482.26,482.26,501.06,502.16,502.16,505.48,505.48,505.48,505.48,505.48,508.80,508.80,508.80,508.80,508.80,508.80,508.80,508.80,515.44,515.44,515.44,515.44,515.44,515.44,515.44,515.44,515.44,515.44,515.44,515.44,515.44,515.44,515.44,515.44,515.44,518.75,518.75,518.75,524.28,524.28,539.76,539.76,539.76,539.76,543.08,549.72,550.82,550.82,549.72,549.72,549.72,549.72,549.72,549.72,549.72,550.82,550.82,549.72,549.72,549.72,543.08,543.08,543.08,543.08,549.72,549.72,549.72,549.72,549.72,547.51,547.51,547.51,547.51,547.51,549.72,549.72,548.61,547.51,547.51,546.40,545.29,545.29,545.29,545.29,545.29,544.19,545.29,544.19,544.19,544.19,544.19,544.19,544.19,543.08,544.19,543.08,543.08,543.08,543.08,543.08,543.08,541.98,541.98,541.98,541.98,541.98,540.87,540.87,540.87,539.76,539.76,517.65,424.75,373.88,336.28,327.44,325.22,324.12,324.12,324.12,323.01,324.12,324.12,325.22,325.22,323.01,323.01,325.22,323.01,323.01,321.91,325.22,324.12,323.01,321.91,324.12,321.91,321.91,323.01,323.01,320.80,320.80,321.91
378.31,378.31,378.31,378.31,378.31,378.31,378.31,378.31,378.31,378.31,378.31,378.31,378.31,378.31,378.31,399.32,399.32,399.32,399.32,399.32,399.32,399.32,399.32,399.32,409.27,409.27,409.27,409.27,409.27,409.27,409.27,409.27,409.27,399.32,399.32,399.32,399.32,378.31,378.31,378.31,368.35,368.35,368.35,368.35,360.61,360.61,360.61,360.61,360.61,360.61,368.35,378.31,399.32,399.32,399.32,409.27,424.75,424.75,453.51,453.51,453.51,463.46,474.52,474.52,474.52,482.26,482.26,482.26,482.26,474.52,474.52,474.52,463.46,463.46,463.46,463.46,463.46,463.46,463.46,474.52,474.52,474.52,474.52,482.26,482.26,487.79,495.53,495.53,495.53,495.53,499.95,499.95,499.95,499.95,499.95,499.95,499.95,499.95,499.95,499.95,499.95,495.53,495.53,495.53,495.53,487.79,487.79,487.79,482.26,482.26,482.26,482.26,474.52,474.52,474.52,463.46,463.46,463.46,453.51,453.51,453.51,453.51,438.02,438.02,438.02,438.02,438.02,438.02,424.75,424.75,424.75,424.75,424.75,424.75,424.75,424.75,424.75,424.75,424.75,424.75,424.75,424.75,424.75,424.75,424.75,424.75,424.75,424.75,424.75,424.75,424.75,438.02,438.02,438.02,438.02,438.02,438.02,438.02,453.51,453.51,453.51,453.51,453.51,453.51,453.51,453.51,453.51,453.51,453.51,453.51,453.51,453.51,453.51,453.51,453.51,453.51,453.51,453.51,453.51,453.51,453.51,453.51,453.51,453.51,453.51,453.51,453.51,453.51,453.51,453.51,453.51,453.51,438.02,438.02,409.27,399.32,399.32,399.32,378.31,378.31,368.35,360.61,360.61,355.08,347.34,347.34,347.34,341.81,341.81,341.81,341.81,341.81,341.81,347.34,347.34,347.34,347.34,347.34,355.08,355.08,355.08,355.08,360.61,360.61,360.61,368.35,368.35,378.31,378.31,378.31,378.31,378.31,399.32,399.32,399.32,399.32,399.32,399.32,399.32,399.32,399.32,399.32,399.32,399.32,399.32,399.32,399.32,399.32,409.27,424.75,424.75,438.02,453.51,453.51,453.51,463.46,463.46,463.46,453.51,453.51,453.51,438.02,424.75,424.75,399.32,399.32,378.31,355.08,355.08,355.08,336.28,336.28,334.07,331.86,331.86,330.75,330.75,334.07,334.07,339.60,378.31,438.02,438.02,482.26,482.26,501.06,502.16,505.48,505.48,505.48,505.48,505.48,505.48,508.80,508.80,508.80,508.80,508.80,508.80,508.80,508.80,515.44,515.44,515.44,515.44,515.44,515.44,515.44,515.44,515.44,515.44,515.44,515.44,515.44,515.44,515.44,515.44,515.44,518.75,518.75,518.75,524.28,524.28,524.28,539.76,539.76,539.76,543.08,549.72,549.72,549.72,549.72,549.72,549.72,549.72,549.72,549.72,549.72,550.82,550.82,550.82,549.72,549.72,549.72,549.72,550.82,550.82,550.82,550.82,549.72,549.72,549.72,547.51,547.51,547.51,547.51,547.51,549.72,549.72,548.61,547.51,546.40,546.40,546.40,546.40,545.29,545.29,545.29,545.29,545.29,544.19,545.29,544.19,545.29,544.19,544.19,544.19,544.19,544.19,544.19,544.19,544.19,544.19,544.19,544.19,544.19,543.08,543.08,543.08,541.98,543.08,543.08,543.08,541.98,541.98,480.05,411.48,365.04,332.96,326.33,325.22,324.12,325.22,325.22,325.22,324.12,324.12,323.01,325.22,324.12,323.01,324.12,325.22,325.22,323.01,323.01,325.22,324.12,323.01,324.12,323.01,321.91,321.91,324.12,323.01,323.01
378.31,378.31,378.31,378.31,378.31,378.31,368.35,368.35,368.35,368.35,368.35,378.31,378.31,378.31,378.31,378.31,378.31,399.32,399.32,399.32,399.32,399.32,399.32,399.32,399.32,409.27,409.27,409.27,409.27,409.27,409.27,409.27,409.27,399.32,399.32,399.32,399.32,378.31,378.31,378.31,368.35,368.35,368.35,368.35,360.61,360.61,360.61,360.61,360.61,360.61,368.35,378.31,378.31,378.31,399.32,399.32,399.32,409.27,424.75,453.51,453.51,463.46,474.52,474.52,474.52,482.26,482.26,482.26,482.26,474.52,474.52,474.52,463.46,463.46,463.46,463.46,463.46,463.46,463.46,474.52,474.52,474.52,474.52,482.26,482.26,487.79,495.53,495.53,495.53,495.53,499.95,499.95,499.95,499.95,499.95,499.95,495.53,495.53,495.53,495.53,495.53,495.53,495.53,495.53,495.53,495.53,487.79,487.79,487.79,487.79,487.79,482.26,474.52,474.52,474.52,463.46,463.46,463.46,453.51,453.51,453.51,453.51,438.02,438.02,438.02,438.02,438.02,438.02,424.75,424.75,424.75,424.75,424.75,424.75,424.75,424.75,424.75,424.75,424.75,424.75,424.75,424.75,424.75,424.75,424.75,424.75,424.75,424.75,424.75,424.75,424.75,438.02,438.02,438.02,438.02,438.02,438.02,438.02,453.51,453.51,453.51,453.51,453.51,453.51,453.51,453.51,453.51,453.51,453.51,453.51,453.51,453.51,453.51,453.51,453.51,453.51,453.51,453.51,453.51,453.51,453.51,453.51,453.51,453.51,453.51,453.51,453.51,453.51,453.51,453.51,453.51,453.51,438.02,438.02,409.27,399.32,399.32,399.32,378.31,378.31,368.35,360.61,360.61,355.08,355.08,355.08,347.34,347.34,347.34,347.34,347.34,347.34,347.34,347.34,347.34,347.34,347.34,347.34,347.34,347.34,355.08,355.08,360.61,360.61,360.61,360.61,360.61,368.35,368.35,378.31,378.31,378.31,378.31,378.31,378.31,378.31,378.31,378.31,378.31,378.31,378.31,378.31,399.32,399.32,399.32,399.32,399.32,399.32,409.27,424.75,424.75,438.02,453.51,453.51,453.51,463.46,474.52,463.46,463.46,453.51,453.51,438.02,424.75,424.75,399.32,399.32,378.31,355.08,355.08,341.81,336.28,336.28,334.07,331.86,331.86,330.75,330.75,331.86,331.86,339.60,355.08,368.35,424.75,474.52,474.52,499.95,502.16,502.16,502.16,505.48,505.48,505.48,505.48,508.80,508.80,508.80,508.80,508.80,508.80,508.80,508.80,508.80,508.80,515.44,515.44,515.44,515.44,515.44,515.44,515.44,515.44,515.44,515.44,515.44,515.44,515.44,515.44,515.44,518.75,518.75,518.75,524.28,524.28,524.28,539.76,539.76,539.76,543.08,549.72,549.72,549.72,549.72,549.72,549.72,549.72,549.72,549.72,549.72,549.72,549.72,550.82,550.82,550.82,550.82,550.82,549.72,549.72,549.72,547.51,544.19,544.19,544.19,544.19,541.98,541.98,541.98,541.98,541.98,547.51,547.51,546.40,547.51,546.40,547.51,546.40,546.40,545.29,546.40,544.19,545.29,544.19,545.29,544.19,545.29,544.19,544.19,545.29,544.19,545.29,544.19,545.29,544.19,545.29,544.19,544.19,544.19,544.19,543.08,544.19,543.08,544.19,543.08,543.08,543.08,541.98,520.96,464.56,410.38,365.04,329.65,326.33,325.22,325.22,324.12,324.12,325.22,325.22,325.22,323.01,323.01,325.22,324.12,324.12,323.01,324.12,324.12,323.01,323.01,323.01,323.01,323.01,324.12,321.91,321.91,321.91,321.91
378.31,378.31,378.31,378.31,378.31,378.31,368.35,368.35,368.35,368.35,368.35,368.35,368.35,368.35,378.31,378.31,378.31,378.31,378.31,378.31,399.32,399.32,399.32,399.32,399.32,399.32,399.32,409.27,409.27,409.27,409.27,409.27,409.27,399.32,399.32,399.32,399.32,399.32,399.32,378.31,378.31,368.35,368.35,368.35,368.35,368.35,360.61,360.61,360.61,360.61,368.35,378.31,378.31,378.31,399.32,399.32,399.32,409.27,424.75,438.02,438.02,453.51,463.46,474.52,474.52,474.52,474.52,474.52,474.52,474.52,474.52,474.52,463.46,463.46,463.46,463.46,463.46,463.46,463.46,474.52,474.52,474.52,474.52,482.26,482.26,482.26,487.79,487.79,487.79,495.53,495.53,495.53,495.53,495.53,495.53,499.95,495.53,495.53,495.53,495.53,495.53,495.53,495.53,495.53,495.53,495.53,487.79,487.79,487.79,487.79,487.79,482.26,482.26,482.26,474.52,474.52,474.52,463.46,463.46,453.51,453.51,453.51,438.02,438.02,438.02,438.02,438.02,438.02,424.75,424.75,424.75,424.75,424.75,424.75,424.75,424.75,424.75,424.75,424.75,424.75,424.75,424.75,424.75,424.75,424.75,424.75,424.75,424.75,424.75,424.75,424.75,438.02,438.02,438.02,438.02,438.02,453.51,453.51,453.51,453.51,453.51,453.51,453.51,453.51,453.51,453.51,453.51,453.51,453.51,453.51,453.51,453.51,453.51,453.51,453.51,453.51,453.51,453.51,453.51,453.51,453.51,453.51,453.51,453.51,453.51,453.51,453.51,453.51,453.51,453.51,453.51,438.02,438.02,438.02,409.27,399.32,399.32,399.32,378.31,378.31,368.35,360.61,360.61,355.08,355.08,355.08,347.34,347.34,347.34,347.34,347.34,347.34,347.34,347.34,347.34,347.34,347.34,347.34,347.34,347.34,355.08,355.08,360.61,360.61,360.61,360.61,360.61,368.35,368.35,378.31,378.31,378.31,378.31,378.31,378.31,378.31,378.31,378.31,378.31,378.31,378.31,378.31,399.32,399.32,399.32,399.32,399.32,399.32,409.27,424.75,424.75,438.02,453.51,463.46,463.46,463.46,474.52,463.46,463.46,463.46,463.46,453.51,424.75,424.75,399.32,399.32,378.31,355.08,355.08,341.81,336.28,336.28,334.07,331.86,331.86,330.75,330.75,331.86,331.86,336.28,347.34,368.35,424.75,474.52,474.52,499.95,502.16,502.16,502.16,505.48,505.48,505.48,505.48,505.48,508.80,508.80,508.80,508.80,508.80,508.80,508.80,508.80,508.80,508.80,508.80,508.80,515.44,515.44,515.44,515.44,515.44,515.44,515.44,515.44,515.44,515.44,515.44,515.44,518.75,518.75,518.75,524.28,524.28,524.28,539.76,539.76,539.76,539.76,549.72,550.82,550.82,549.72,549.72,549.72,549.72,549.72,549.72,549.72,549.72,549.72,549.72,549.72,549.72,549.72,549.72,549.72,549.72,547.51,547.51,544.19,544.19,541.98,541.98,541.98,541.98,541.98,541.98,541.98,544.19,543.08,543.08,545.29,544.19,544.19,544.19,544.19,544.19,544.19,544.19,545.29,544.19,544.19,544.19,544.19,545.29,544.19,545.29,544.19,545.29,544.19,545.29,544.19,545.29,544.19,545.29,544.19,545.29,544.19,545.29,544.19,545.29,544.19,544.19,544.19,544.19,545.29,523.18,463.46,412.59,350.66,328.54,326.33,325.22,325.22,325.22,325.22,324.12,323.01,325.22,325.22,324.12,323.01,324.12,326.33,324.12,323.01,325.22,325.22,325.22,323.01,324.12,323.01,321.91,323.01,323.01,321.91
378.31,378.31,378.31,378.31,378.31,378.31,368.35,368.35,368.35,368.35,368.35,368.35,368.35,368.35,378.31,378.31,378.31,378.31,378.31,378.31,399.32,399.32,399.32,399.32,399.32,399.32,399.32,409.27,409.27,409.27,409.27,409.27,409.27,399.32,399.32,399.32,399.32,399.32,399.32,378.31,378.31,378.31,378.31,368.35,368.35,368.35,368.35,368.35,368.35,368.35,368.35,378.31,378.31,378.31,399.32,399.32,399.32,399.32,409.27,424.75,424.75,438.02,453.51,453.51,453.51,463.46,463.46,463.46,474.52,474.52,474.52,463.46,463.46,463.46,463.46,463.46,463.46,463.46,463.46,463.46,463.46,474.52,474.52,474.52,474.52,482.26,482.26,482.26,487.79,487.79,487.79,487.79,487.79,495.53,495.53,495.53,495.53,495.53,495.53,495.53,495.53,495.53,495.53,495.53,495.53,495.53,487.79,487.79,487.79,487.79,487.79,482.26,482.26,482.26,474.52,474.52,474.52,463.46,463.46,453.51,453.51,453.51,438.02,438.02,438.02,438.02,438.02,438.02,424.75,424.75,424.75,424.75,424.75,424.75,424.75,424.75,424.75,424.75,424.75,424.75,424.75,424.75,424.75,424.75,424.75,424.75,424.75,424.75,424.75,438.02,438.02,438.02,438.02,438.02,438.02,438.02,453.51,453.51,453.51,453.51,453.51,453.51,453.51,453.51,453.51,453.51,453.51,453.51,453.51,453.51,453.51,453.51,453.51,453.51,453.51,453.51,453.51,438.02,438.02,453.51,453.51,453.51,453.51,453.51,453.51,453.51,453.51,453.51,453.51,453.51,453.51,438.02,424.75,424.75,409.27,399.32,399.32,399.32,378.31,378.31,368.35,360.61,360.61,355.08,355.08,355.08,347.34,347.34,347.34,347.34,347.34,347.34,347.34,347.34,347.34,347.34,347.34,347.34,347.34,347.34,355.08,355.08,355.08,355.08,360.61,360.61,360.61,360.61,368.35,368.35,368.35,378.31,378.31,378.31,378.31,378.31,378.31,378.31,378.31,378.31,378.31,378.31,399.32,399.32,399.32,399.32,399.32,399.32,409.27,424.75,424.75,438.02,453.51,463.46,463.46,474.52,474.52,474.52,463.46,463.46,463.46,453.51,438.02,438.02,409.27,409.27,378.31,360.61,360.61,341.81,336.28,336.28,334.07,331.86,331.86,330.75,330.75,331.86,331.86,336.28,347.34,392.68,474.52,474.52,474.52,499.95,502.16,505.48,505.48,505.48,505.48,505.48,505.48,505.48,505.48,505.48,505.48,505.48,508.80,508.80,508.80,508.80,508.80,508.80,508.80,508.80,508.80,515.44,515.44,515.44,515.44,515.44,515.44,515.44,515.44,515.44,515.44,515.44,515.44,515.44,518.75,518.75,518.75,524.28,524.28,539.76,539.76,539.76,549.72,549.72,550.82,549.72,549.72,549.72,547.51,547.51,547.51,549.72,549.72,549.72,549.72,549.72,549.72,549.72,549.72,549.72,549.72,547.51,547.51,544.19,544.19,541.98,541.98,541.98,541.98,541.98,541.98,541.98,543.08,540.87,540.87,540.87,541.98,541.98,543.08,541.98,543.08,543.08,543.08,543.08,544.19,543.08,544.19,544.19,544.19,544.19,543.08,544.19,544.19,545.29,544.19,544.19,545.29,544.19,545.29,544.19,545.29,544.19,545.29,544.19,546.40,545.29,545.29,544.19,544.19,544.19,541.98,504.38,439.13,369.46,335.18,328.54,326.33,325.22,324.12,325.22,326.33,325.22,324.12,324.12,325.22,325.22,324.12,324.12,324.12,325.22,324.12,324.12,324.12,324.12,323.01,321.91,324.12,321.91,321.91,324.12
378.31,378.31,378.31,378.31,378.31,378.31,368.35,368.35,368.35,368.35,368.35,368.35,368.35,368.35,368.35,378.31,378.31,378.31,378.31,378.31,378.31,399.32,399.32,399.32,399.32,399.32,399.32,399.32,409.27,409.27,409.27,409.27,409.27,399.32,399.32,399.32,399.32,399.32,399.32,378.31,378.31,378.31,378.31,368.35,368.35,378.31,368.35,368.35,368.35,368.35,368.35,378.31,378.31,378.31,399.32,399.32,399.32,399.32,409.27,424.75,424.75,438.02,453.51,453.51,453.51,463.46,463.46,463.46,474.52,474.52,474.52,463.46,463.46,463.46,463.46,463.46,463.46,463.46,463.46,463.46,463.46,463.46,463.46,474.52,474.52,474.52,474.52,474.52,482.26,482.26,482.26,482.26,487.79,487.79,487.79,487.79,487.79,487.79,487.79,487.79,487.79,487.79,487.79,487.79,487.79,487.79,487.79,487.79,487.79,487.79,487.79,482.26,482.26,482.26,474.52,474.52,474.52,463.46,463.46,463.46,453.51,453.51,438.02,438.02,438.02,438.02,438.02,438.02,424.75,424.75,424.75,424.75,424.75,424.75,424.75,424.75,424.75,424.75,424.75,424.75,424.75,424.75,424.75,424.75,424.75,424.75,424.75,424.75,424.75,438.02,438.02,438.02,438.02,438.02,438.02,438.02,453.51,453.51,453.51,453.51,453.51,453.51,453.51,453.51,453.51,463.46,463.46,453.51,453.51,453.51,453.51,453.51,453.51,453.51,453.51,453.51,453.51,438.02,438.02,453.51,453.51,453.51,453.51,453.51,453.51,453.51,453.51,453.51,453.51,453.51,453.51,438.02,424.75,424.75,409.27,399.32,399.32,399.32,378.31,378.31,368.35,360.61,360.61,360.61,355.08,355.08,355.08,355.08,355.08,347.34,347.34,347.34,347.34,347.34,347.34,347.34,347.34,347.34,347.34,347.34,355.08,355.08,355.08,355.08,355.08,360.61,360.61,360.61,360.61,360.61,368.35,368.35,368.35,368.35,378.31,378.31,378.31,378.31,378.31,378.31,378.31,378.31,399.32,399.32,399.32,399.32,399.32,399.32,409.27,424.75,424.75,438.02,453.51,463.46,463.46,474.52,474.52,474.52,463.46,463.46,463.46,453.51,438.02,438.02,409.27,409.27,378.31,360.61,360.61,341.81,336.28,336.28,334.07,331.86,331.86,330.75,330.75,330.75,330.75,334.07,347.34,368.35,463.46,463.46,463.46,495.53,501.06,505.48,505.48,505.48,505.48,505.48,505.48,505.48,505.48,505.48,505.48,505.48,508.80,508.80,508.80,508.80,508.80,508.80,508.80,508.80,508.80,515.44,515.44,515.44,515.44,515.44,515.44,515.44,515.44,515.44,515.44,515.44,515.44,515.44,518.75,518.75,518.75,524.28,524.28,539.76,539.76,539.76,539.76,539.76,549.72,550.82,549.72,549.72,549.72,549.72,549.72,547.51,549.72,549.72,549.72,549.72,549.72,549.72,549.72,547.51,547.51,547.51,544.19,541.98,541.98,541.98,541.98,539.76,539.76,539.76,539.76,539.76,536.45,539.76,540.87,540.87,540.87,540.87,541.98,541.98,543.08,543.08,543.08,543.08,544.19,543.08,543.08,543.08,544.19,544.19,544.19,544.19,544.19,545.29,544.19,545.29,544.19,545.29,544.19,545.29,544.19,545.29,544.19,545.29,544.19,544.19,545.29,544.19,544.19,544.19,544.19,543.08,477.84,407.06,360.61,331.86,327.44,326.33,325.22,325.22,324.12,324.12,325.22,324.12,324.12,324.12,325.22,325.22,324.12,324.12,323.01,324.12,323.01,325.22,325.22,324.12,321.91,323.01,324.12,321.91
378.31,378.31,378.31,378.31,378.31,378.31,368.35,368.35,368.35,368.35,368.35,368.35,368.35,368.35,368.35,368.35,368.35,368.35,378.31,378.31,378.31,378.31,399.32,399.32,399.32,399.32,399.32,399.32,399.32,409.27,409.27,409.27,409.27,399.32,399.32,399.32,399.32,399.32,399.32,399.32,378.31,378.31,378.31,378.31,378.31,378.31,368.35,368.35,368.35,368.35,368.35,378.31,378.31,378.31,378.31,399.32,399.32,399.32,399.32,409.27,409.27,424.75,438.02,438.02,453.51,453.51,463.46,463.46,463.46,474.52,474.52,463.46,463.46,463.46,463.46,463.46,463.46,463.46,463.46,463.46,463.46,463.46,463.46,474.52,474.52,474.52,474.52,474.52,482.26,482.26,482.26,482.26,487.79,487.79,487.79,487.79,487.79,487.79,487.79,487.79,487.79,487.79,487.79,487.79,487.79,487.79,487.79,487.79,487.79,487.79,487.79,482.26,482.26,482.26,474.52,474.52,474.52,463.46,463.46,463.46,453.51,453.51,438.02,438.02,438.02,438.02,438.02,438.02,424.75,424.75,424.75,424.75,424.75,424.75,424.75,424.75,424.75,424.75,424.75,424.75,424.75,424.75,424.75,424.75,424.75,424.75,424.75,424.75,438.02,438.02,438.02,438.02,438.02,438.02,438.02,453.51,453.51,453.51,453.51,453.51,453.51,453.51,453.51,453.51,453.51,463.46,463.46,453.51,453.51,453.51,453.51,453.51,453.51,453.51,453.51,453.51,453.51,438.02,438.02,453.51,453.51,453.51,453.51,453.51,453.51,453.51,453.51,453.51,453.51,453.51,453.51,438.02,424.75,424.75,409.27,399.32,399.32,399.32,378.31,378.31,368.35,360.61,360.61,360.61,355.08,355.08,355.08,355.08,355.08,355.08,355.08,355.08,355.08,347.34,347.34,347.34,347.34,347.34,347.34,347.34,355.08,355.08,355.08,355.08,355.08,360.61,360.61,360.61,360.61,360.61,368.35,368.35,368.35,368.35,378.31,378.31,378.31,378.31,378.31,378.31,378.31,378.31,399.32,399.32,399.32,399.32,399.32,399.32,409.27,424.75,424.75,438.02,453.51,463.46,463.46,463.46,474.52,474.52,474.52,463.46,463.46,453.51,438.02,438.02,409.27,409.27,378.31,360.61,360.61,347.34,339.60,339.60,334.07,331.86,331.86,330.75,330.75,330.75,330.75,334.07,341.81,360.61,463.46,463.46,463.46,487.79,501.06,502.16,502.16,502.16,505.48,505.48,505.48,505.48,505.48,505.48,505.48,505.48,505.48,505.48,508.80,508.80,508.80,508.80,508.80,508.80,508.80,508.80,515.44,515.44,515.44,515.44,515.44,515.44,515.44,515.44,515.44,515.44,515.44,515.44,515.44,518.75,518.75,518.75,524.28,524.28,524.28,539.76,539.76,539.76,549.72,550.82,549.72,549.72,549.72,549.72,549.72,547.51,549.72,549.72,549.72,549.72,547.51,547.51,547.51,544.19,544.19,544.19,541.98,541.98,541.98,541.98,539.76,536.45,536.45,536.45,536.45,536.45,536.45,538.66,538.66,538.66,539.76,539.76,540.87,540.87,540.87,540.87,541.98,541.98,541.98,543.08,541.98,543.08,543.08,543.08,543.08,543.08,544.19,543.08,544.19,543.08,545.29,544.19,543.08,545.29,544.19,545.29,544.19,545.29,545.29,545.29,545.29,545.29,545.29,544.19,544.19,543.08,520.96,467.88,397.11,355.08,330.75,327.44,326.33,325.22,326.33,325.22,324.12,326.33,326.33,324.12,324.12,324.12,325.22,326.33,326.33,325.22,326.33,324.12,324.12,323.01,324.12,324.12,321.91,321.91
378.31,378.31,378.31,378.31,378.31,378.31,378.31,368.35,368.35,368.35,368.35,368.35,368.35,368.35,368.35,368.35,368.35,368.35,378.31,378.31,378.31,378.31,399.32,399.32,399.32,399.32,399.32,399.32,399.32,409.27,409.27,399.32,399.32,399.32,399.32,399.32,399.32,399.32,399.32,399.32,399.32,378.31,378.31,378.31,378.31,378.31,378.31,368.35,368.35,368.35,368.35,378.31,378.31,378.31,378.31,378.31,378.31,399.32,399.32,399.32,399.32,409.27,424.75,424.75,438.02,453.51,453.51,453.51,463.46,463.46,463.46,463.46,463.46,463.46,463.46,463.46,463.46,463.46,463.46,463.46,463.46,463.46,463.46,463.46,463.46,474.52,474.52,474.52,474.52,474.52,482.26,482.26,482.26,482.26,482.26,482.26,482.26,482.26,482.26,487.79,487.79,487.79,487.79,487.79,487.79,487.79,487.79,487.79,487.79,487.79,487.79,482.26,482.26,482.26,474.52,474.52,474.52,463.46,463.46,463.46,453.51,453.51,438.02,438.02,438.02,438.02,438.02,438.02,438.02,438.02,424.75,424.75,438.02,424.75,424.75,424.75,424.75,424.75,424.75,424.75,424.75,424.75,424.75,424.75,424.75,424.75,438.02,438.02,438.02,438.02,438.02,438.02,438.02,453.51,453.51,453.51,453.51,453.51,453.51,463.46,463.46,453.51,453.51,463.46,463.46,463.46,463.46,463.46,463.46,463.46,453.51,453.51,453.51,453.51,453.51,453.51,453.51,453.51,453.51,453.51,453.51,453.51,453.51,453.51,453.51,453.51,453.51,453.51,453.51,453.51,453.51,438.02,424.75,424.75,409.27,399.32,399.32,399.32,378.31,378.31,368.35,368.35,368.35,360.61,355.08,355.08,355.08,355.08,355.08,355.08,355.08,355.08,355.08,347.34,347.34,347.34,347.34,347.34,347.34,347.34,347.34,347.34,347.34,355.08,355.08,355.08,355.08,360.61,360.61,360.61,360.61,368.35,368.35,368.35,368.35,378.31,378.31,378.31,378.31,378.31,378.31,378.31,399.32,399.32,399.32,399.32,399.32,399.32,409.27,424.75,424.75,438.02,453.51,463.46,463.46,463.46,474.52,474.52,474.52,463.46,463.46,453.51,438.02,438.02,409.27,409.27,399.32,399.32,362.82,347.34,339.60,339.60,334.07,331.86,331.86,330.75,330.75,330.75,330.75,334.07,339.60,360.61,463.46,463.46,463.46,474.52,499.95,502.16,502.16,502.16,502.16,502.16,502.16,505.48,505.48,505.48,505.48,505.48,505.48,505.48,505.48,508.80,508.80,508.80,508.80,508.80,508.80,508.80,508.80,508.80,515.44,515.44,515.44,515.44,515.44,515.44,515.44,515.44,515.44,515.44,515.44,515.44,515.44,518.75,518.75,518.75,524.28,539.76,539.76,539.76,543.08,549.72,550.82,550.82,549.72,549.72,549.72,547.51,549.72,549.72,549.72,549.72,547.51,547.51,547.51,544.19,544.19,544.19,541.98,541.98,541.98,541.98,539.76,536.45,536.45,536.45,536.45,536.45,536.45,537.55,538.66,538.66,538.66,538.66,539.76,539.76,539.76,540.87,540.87,540.87,541.98,541.98,541.98,541.98,543.08,541.98,543.08,543.08,543.08,543.08,544.19,543.08,544.19,544.19,545.29,544.19,545.29,544.19,544.19,545.29,544.19,545.29,544.19,544.19,544.19,544.19,543.08,541.98,541.98,515.44,461.25,386.05,348.45,329.65,327.44,326.33,325.22,325.22,325.22,324.12,324.12,326.33,326.33,326.33,324.12,325.22,325.22,324.12,324.12,324.12,326.33,324.12,321.91,321.91,323.01,324.12
378.31,378.31,378.31,378.31,378.31,378.31,378.31,368.35,368.35,368.35,368.35,368.35,368.35,368.35,368.35,368.35,368.35,368.35,368.35,368.35,378.31,378.31,378.31,378.31,399.32,399.32,399.32,399.32,399.32,399.32,399.32,399.32,399.32,399.32,399.32,399.32,399.32,399.32,399.32,399.32,399.32,399.32,399.32,378.31,378.31,378.31,378.31,378.31,378.31,378.31,378.31,378.31,378.31,378.31,378.31,378.31,378.31,399.32,399.32,399.32,399.32,409.27,424.75,424.75,438.02,453.51,453.51,453.51,463.46,463.46,463.46,463.46,463.46,463.46,463.46,463.46,463.46,463.46,463.46,463.46,463.46,453.51,453.51,463.46,463.46,463.46,463.46,463.46,474.52,474.52,474.52,474.52,474.52,474.52,474.52,474.52,482.26,482.26,482.26,482.26,482.26,482.26,487.79,487.79,487.79,487.79,487.79,487.79,487.79,487.79,487.79,487.79,482.26,482.26,474.52,474.52,474.52,463.46,463.46,463.46,453.51,453.51,438.02,438.02,438.02,438.02,438.02,438.02,438.02,438.02,424.75,424.75,438.02,424.75,424.75,424.75,424.75,424.75,424.75,424.75,424.75,424.75,424.75,424.75,424.75,424.75,438.02,438.02,438.02,438.02,438.02,438.02,438.02,453.51,453.51,453.51,453.51,453.51,463.46,463.46,463.46,463.46,463.46,463.46,463.46,463.46,463.46,463.46,463.46,463.46,453.51,453.51,453.51,453.51,453.51,453.51,453.51,453.51,453.51,453.51,453.51,453.51,453.51,453.51,453.51,453.51,453.51,453.51,453.51,453.51,453.51,424.75,424.75,424.75,399.32,399.32,399.32,399.32,378.31,378.31,368.35,368.35,368.35,360.61,355.08,355.08,355.08,355.08,355.08,355.08,355.08,355.08,355.08,355.08,347.34,347.34,347.34,347.34,347.34,347.34,347.34,347.34,347.34,355.08,355.08,355.08,355.08,355.08,360.61,360.61,360.61,368.35,368.35,368.35,368.35,378.31,378.31,378.31,378.31,378.31,378.31,378.31,399.32,399.32,399.32,399.32,399.32,399.32,409.27,424.75,424.75,438.02,453.51,453.51,453.51,463.46,474.52,474.52,474.52,463.46,463.46,453.51,438.02,438.02,409.27,409.27,399.32,399.32,366.14,347.34,339.60,339.60,334.07,331.86,331.86,330.75,330.75,330.75,330.75,334.07,339.60,360.61,463.46,463.46,463.46,474.52,499.95,502.16,502.16,502.16,502.16,502.16,502.16,505.48,505.48,505.48,505.48,505.48,505.48,505.48,505.48,508.80,508.80,508.80,508.80,508.80,508.80,508.80,508.80,508.80,515.44,515.44,515.44,515.44,515.44,515.44,515.44,515.44,515.44,515.44,515.44,515.44,515.44,515.44,518.75,518.75,518.75,524.28,524.28,524.28,539.76,543.08,549.72,549.72,549.72,549.72,549.72,547.51,547.51,547.51,547.51,547.51,547.51,547.51,547.51,544.19,541.98,541.98,541.98,541.98,541.98,539.76,539.76,536.45,536.45,536.45,536.45,536.45,536.45,536.45,537.55,538.66,538.66,538.66,538.66,539.76,539.76,540.87,539.76,540.87,540.87,540.87,540.87,541.98,541.98,541.98,541.98,543.08,543.08,543.08,541.98,544.19,543.08,544.19,543.08,543.08,545.29,544.19,543.08,544.19,544.19,544.19,544.19,543.08,543.08,541.98,540.87,538.66,533.13,511.01,464.56,426.96,380.52,353.98,339.60,327.44,326.33,325.22,325.22,326.33,326.33,325.22,325.22,325.22,325.22,324.12,325.22,326.33,326.33,324.12,324.12,324.12,325.22,324.12,324.12,321.91
378.31,378.31,378.31,378.31,378.31,378.31,378.31,368.35,368.35,368.35,368.35,368.35,368.35,368.35,368.35,368.35,368.35,368.35,368.35,368.35,368.35,378.31,378.31,378.31,378.31,399.32,399.32,399.32,399.32,399.32,399.32,399.32,399.32,399.32,399.32,399.32,399.32,399.32,399.32,399.32,399.32,399.32,399.32,378.31,378.31,378.31,378.31,378.31,378.31,378.31,378.31,378.31,378.31,378.31,378.31,378.31,378.31,378.31,399.32,399.32,399.32,399.32,409.27,409.27,424.75,438.02,453.51,453.51,453.51,463.46,463.46,463.46,463.46,463.46,463.46,463.46,463.46,463.46,463.46,463.46,463.46,453.51,453.51,463.46,463.46,463.46,463.46,463.46,474.52,474.52,474.52,474.52,474.52,474.52,474.52,474.52,482.26,482.26,482.26,482.26,482.26,482.26,487.79,487.79,487.79,487.79,487.79,487.79,487.79,487.79,487.79,487.79,482.26,482.26,474.52,474.52,474.52,463.46,463.46,463.46,453.51,453.51,438.02,438.02,438.02,438.02,438.02,438.02,438.02,438.02,438.02,438.02,438.02,438.02,438.02,424.75,424.75,424.75,424.75,424.75,424.75,424.75,424.75,424.75,424.75,424.75,438.02,438.02,438.02,438.02,438.02,438.02,438.02,453.51,453.51,453.51,453.51,453.51,463.46,463.46,463.46,463.46,463.46,463.46,463.46,463.46,463.46,463.46,463.46,463.46,453.51,453.51,453.51,453.51,453.51,453.51,453.51,453.51,453.51,453.51,453.51,453.51,453.51,453.51,453.51,438.02,438.02,438.02,438.02,438.02,438.02,424.75,424.75,424.75,399.32,399.32,399.32,399.32,378.31,378.31,368.35,368.35,368.35,360.61,360.61,360.61,355.08,355.08,355.08,355.08,355.08,355.08,355.08,355.08,355.08,355.08,347.34,347.34,347.34,347.34,347.34,347.34,347.34,355.08,355.08,355.08,355.08,355.08,360.61,360.61,360.61,360.61,368.35,368.35,368.35,378.31,378.31,378.31,378.31,378.31,378.31,378.31,399.32,399.32,399.32,399.32,399.32,399.32,409.27,424.75,424.75,438.02,453.51,453.51,453.51,463.46,474.52,474.52,474.52,463.46,463.46,463.46,438.02,438.02,424.75,424.75,399.32,399.32,370.56,347.34,339.60,339.60,334.07,331.86,331.86,330.75,330.75,330.75,330.75,331.86,339.60,355.08,355.08,438.02,438.02,474.52,499.95,502.16,502.16,502.16,502.16,502.16,502.16,502.16,505.48,505.48,505.48,505.48,505.48,505.48,505.48,505.48,505.48,508.80,508.80,508.80,508.80,508.80,508.80,508.80,508.80,515.44,515.44,515.44,515.44,515.44,515.44,515.44,515.44,515.44,515.44,515.44,515.44,515.44,518.75,518.75,518.75,524.28,524.28,524.28,539.76,543.08,549.72,549.72,549.72,549.72,550.82,549.72,548.61,548.61,548.61,548.61,547.51,544.19,544.19,541.98,541.98,541.98,541.98,541.98,541.98,541.98,539.76,539.76,539.76,539.76,536.45,536.45,536.45,537.55,537.55,537.55,537.55,538.66,537.55,538.66,538.66,539.76,539.76,539.76,539.76,540.87,540.87,540.87,540.87,541.98,541.98,541.98,541.98,543.08,541.98,543.08,543.08,543.08,543.08,543.08,544.19,543.08,543.08,543.08,543.08,543.08,541.98,541.98,539.76,537.55,534.24,524.28,492.21,465.67,440.24,405.95,387.15,374.99,358.40,346.24,337.39,328.54,326.33,325.22,325.22,325.22,324.12,324.12,327.44,326.33,325.22,324.12,324.12,326.33,325.22,323.01,323.01,323.01,323.01,324.12
378.31,378.31,378.31,378.31,378.31,378.31,378.31,378.31,378.31,368.35,368.35,368.35,368.35,368.35,368.35,368.35,368.35,368.35,368.35,368.35,368.35,378.31,378.31,378.31,378.31,378.31,378.31,399.32,399.32,399.32,399.32,399.32,399.32,399.32,399.32,399.32,399.32,399.32,399.32,399.32,399.32,399.32,399.32,399.32,399.32,399.32,378.31,378.31,378.31,378.31,378.31,378.31,378.31,378.31,378.31,378.31,378.31,378.31,378.31,378.31,399.32,399.32,409.27,409.27,424.75,424.75,438.02,438.02,453.51,463.46,463.46,463.46,463.46,463.46,463.46,463.46,463.46,463.46,463.46,463.46,463.46,453.51,453.51,463.46,463.46,463.46,463.46,463.46,463.46,463.46,463.46,463.46,474.52,474.52,474.52,474.52,474.52,474.52,474.52,474.52,482.26,482.26,482.26,482.26,482.26,487.79,487.79,487.79,487.79,487.79,487.79,487.79,482.26,482.26,474.52,474.52,474.52,474.52,463.46,463.46,463.46,453.51,453.51,453.51,438.02,438.02,438.02,438.02,438.02,438.02,438.02,438.02,438.02,438.02,438.02,438.02,438.02,424.75,424.75,424.75,424.75,424.75,424.75,424.75,424.75,438.02,438.02,438.02,438.02,438.02,438.02,453.51,453.51,453.51,453.51,453.51,463.46,463.46,463.46,463.46,463.46,463.46,463.46,463.46,463.46,463.46,463.46,463.46,463.46,463.46,453.51,453.51,453.51,453.51,453.51,453.51,453.51,453.51,453.51,453.51,453.51,438.02,438.02,453.51,438.02,438.02,438.02,438.02,438.02,438.02,438.02,424.75,424.75,409.27,399.32,399.32,399.32,399.32,378.31,378.31,368.35,368.35,368.35,360.61,360.61,360.61,355.08,355.08,355.08,355.08,355.08,355.08,355.08,355.08,355.08,355.08,347.34,347.34,347.34,347.34,347.34,347.34,347.34,347.34,355.08,355.08,355.08,355.08,360.61,360.61,360.61,360.61,368.35,368.35,368.35,378.31,378.31,378.31,378.31,378.31,378.31,399.32,399.32,399.32,399.32,399.32,409.27,409.27,409.27,424.75,424.75,438.02,453.51,453.51,453.51,463.46,474.52,474.52,474.52,463.46,463.46,463.46,453.51,453.51,424.75,424.75,399.32,378.31,378.31,355.08,339.60,339.60,334.07,331.86,331.86,330.75,330.75,330.75,330.75,331.86,336.28,347.34,347.34,438.02,438.02,463.46,495.53,501.06,501.06,502.16,502.16,502.16,502.16,502.16,505.48,505.48,505.48,505.48,505.48,505.48,505.48,505.48,505.48,508.80,508.80,508.80,508.80,508.80,508.80,508.80,508.80,508.80,508.80,508.80,508.80,508.80,508.80,508.80,515.44,508.80,508.80,515.44,515.44,515.44,515.44,515.44,515.44,518.75,518.75,518.75,524.28,539.76,539.76,539.76,544.19,547.51,548.61,548.61,549.72,547.51,547.51,547.51,546.40,547.51,544.19,541.98,541.98,541.98,541.98,541.98,541.98,541.98,539.76,539.76,539.76,539.76,536.45,536.45,538.66,536.45,538.66,537.55,538.66,538.66,538.66,538.66,538.66,538.66,539.76,539.76,539.76,540.87,539.76,540.87,540.87,540.87,541.98,541.98,541.98,541.98,543.08,541.98,543.08,543.08,543.08,541.98,543.08,543.08,543.08,543.08,541.98,541.98,539.76,536.45,532.02,526.49,507.69,467.88,442.45,425.86,414.80,402.64,392.68,382.73,372.78,360.61,356.19,344.02,335.18,327.44,326.33,327.44,326.33,326.33,325.22,325.22,326.33,326.33,326.33,324.12,324.12,325.22,324.12,325.22,323.01,323.01
378.31,378.31,378.31,378.31,378.31,378.31,378.31,378.31,378.31,368.35,368.35,368.35,368.35,368.35,368.35,368.35,368.35,368.35,368.35,368.35,368.35,378.31,378.31,378.31,378.31,378.31,378.31,399.32,399.32,399.32,399.32,399.32,399.32,399.32,399.32,399.32,399.32,399.32,399.32,399.32,399.32,399.32,399.32,399.32,399.32,399.32,378.31,378.31,378.31,378.31,378.31,378.31,378.31,378.31,378.31,378.31,378.31,378.31,378.31,378.31,399.32,399.32,399.32,399.32,409.27,424.75,424.75,438.02,453.51,453.51,453.51,463.46,463.46,463.46,463.46,453.51,453.51,453.51,453.51,453.51,453.51,453.51,453.51,453.51,453.51,453.51,463.46,463.46,463.46,463.46,463.46,463.46,463.46,463.46,463.46,463.46,474.52,474.52,474.52,474.52,474.52,482.26,482.26,482.26,482.26,487.79,487.79,487.79,487.79,487.79,487.79,487.79,482.26,482.26,474.52,474.52,474.52,474.52,463.46,463.46,463.46,453.51,453.51,453.51,438.02,438.02,438.02,438.02,438.02,438.02,438.02,438.02,438.02,438.02,438.02,438.02,438.02,424.75,424.75,424.75,424.75,424.75,424.75,424.75,438.02,438.02,438.02,438.02,438.02,453.51,453.51,453.51,453.51,453.51,453.51,463.46,463.46,463.46,474.52,474.52,474.52,474.52,474.52,474.52,474.52,474.52,474.52,463.46,463.46,463.46,453.51,453.51,453.51,453.51,453.51,453.51,453.51,453.51,453.51,453.51,453.51,438.02,438.02,444.66,438.02,438.02,438.02,438.02,424.75,424.75,424.75,424.75,424.75,409.27,399.32,399.32,399.32,399.32,378.31,378.31,378.31,368.35,368.35,360.61,360.61,360.61,360.61,355.08,355.08,355.08,355.08,355.08,355.08,355.08,355.08,355.08,347.34,347.34,347.34,347.34,347.34,347.34,347.34,347.34,355.08,355.08,355.08,355.08,355.08,355.08,360.61,360.61,368.35,368.35,368.35,378.31,378.31,378.31,378.31,378.31,378.31,399.32,399.32,399.32,399.32,399.32,399.32,399.32,409.27,424.75,424.75,424.75,438.02,453.51,453.51,463.46,463.46,463.46,463.46,463.46,463.46,463.46,453.51,453.51,438.02,438.02,399.32,378.31,378.31,369.46,352.87,346.24,334.07,331.86,331.86,330.75,330.75,330.75,330.75,331.86,336.28,347.34,347.34,408.16,463.46,463.46,495.53,501.06,501.06,502.16,502.16,502.16,502.16,502.16,505.48,505.48,505.48,505.48,505.48,505.48,505.48,505.48,505.48,505.48,508.80,508.80,508.80,508.80,508.80,508.80,508.80,508.80,508.80,508.80,508.80,508.80,508.80,508.80,508.80,508.80,508.80,508.80,508.80,508.80,515.44,515.44,515.44,515.44,515.44,515.44,518.75,524.28,524.28,539.76,538.66,543.08,545.29,547.51,547.51,547.51,548.61,546.40,546.40,547.51,544.19,541.98,541.98,541.98,541.98,541.98,541.98,541.98,539.76,539.76,539.76,539.76,536.45,536.45,537.55,536.45,538.66,537.55,538.66,538.66,537.55,538.66,538.66,538.66,539.76,539.76,539.76,540.87,539.76,540.87,540.87,540.87,540.87,540.87,541.98,541.98,541.98,541.98,543.08,541.98,541.98,541.98,541.98,541.98,541.98,540.87,538.66,536.45,532.02,518.75,503.27,485.58,443.55,425.86,415.91,400.42,392.68,389.36,386.05,383.84,382.73,379.41,367.25,356.19,352.87,350.66,341.81,336.28,327.44,325.22,326.33,325.22,325.22,325.22,325.22,326.33,326.33,323.01,323.01,323.01,323.01,325.22
378.31,378.31,378.31,378.31,378.31,378.31,378.31,378.31,378.31,378.31,368.35,368.35,368.35,368.35,368.35,368.35,368.35,368.35,368.35,368.35,368.35,378.31,378.31,378.31,378.31,378.31,378.31,378.31,399.32,399.32,399.32,399.32,399.32,399.32,399.32,399.32,399.32,399.32,399.32,399.32,399.32,399.32,399.32,399.32,399.32,399.32,378.31,378.31,378.31,378.31,378.31,378.31,378.31,378.31,378.31,378.31,378.31,378.31,378.31,378.31,399.32,399.32,399.32,399.32,409.27,424.75,424.75,438.02,453.51,453.51,453.51,463.46,463.46,463.46,463.46,453.51,453.51,453.51,453.51,453.51,453.51,453.51,453.51,453.51,453.51,453.51,463.46,463.46,463.46,463.46,463.46,463.46,453.51,453.51,453.51,463.46,463.46,463.46,463.46,474.52,474.52,474.52,482.26,482.26,482.26,487.79,487.79,487.79,487.79,487.79,487.79,487.79,482.26,482.26,482.26,474.52,474.52,474.52,463.46,463.46,463.46,453.51,453.51,453.51,453.51,438.02,438.02,438.02,438.02,438.02,438.02,438.02,438.02,438.02,438.02,438.02,438.02,424.75,424.75,424.75,424.75,424.75,424.75,424.75,438.02,438.02,438.02,438.02,438.02,453.51,453.51,453.51,453.51,453.51,453.51,463.46,463.46,463.46,474.52,474.52,474.52,474.52,474.52,474.52,474.52,474.52,474.52,463.46,463.46,463.46,453.51,453.51,453.51,453.51,453.51,453.51,453.51,453.51,453.51,453.51,453.51,438.02,438.02,441.34,438.02,438.02,438.02,438.02,424.75,424.75,424.75,424.75,424.75,409.27,399.32,399.32,399.32,399.32,378.31,378.31,378.31,368.35,368.35,360.61,360.61,360.61,360.61,355.08,355.08,355.08,355.08,355.08,355.08,355.08,355.08,355.08,347.34,347.34,347.34,347.34,347.34,347.34,347.34,347.34,347.34,355.08,355.08,355.08,355.08,355.08,360.61,360.61,368.35,368.35,368.35,378.31,378.31,378.31,378.31,378.31,378.31,399.32,399.32,399.32,399.32,399.32,399.32,399.32,409.27,424.75,424.75,424.75,438.02,453.51,453.51,453.51,463.46,463.46,463.46,463.46,463.46,463.46,453.51,453.51,438.02,409.27,399.32,378.31,378.31,378.31,362.82,350.66,334.07,331.86,331.86,330.75,330.75,330.75,330.75,330.75,334.07,341.81,341.81,394.89,453.51,453.51,487.79,487.79,501.06,502.16,502.16,502.16,502.16,502.16,502.16,502.16,505.48,505.48,505.48,505.48,505.48,505.48,505.48,505.48,508.80,508.80,508.80,508.80,508.80,508.80,508.80,508.80,508.80,508.80,508.80,508.80,508.80,508.80,508.80,508.80,508.80,508.80,508.80,508.80,515.44,515.44,515.44,515.44,515.44,515.44,518.75,524.28,524.28,539.76,533.13,534.24,539.76,544.19,547.51,547.51,546.40,545.29,544.19,544.19,544.19,541.98,541.98,541.98,541.98,541.98,541.98,541.98,539.76,539.76,539.76,539.76,539.76,538.66,538.66,538.66,538.66,537.55,537.55,538.66,538.66,539.76,538.66,539.76,538.66,539.76,539.76,539.76,540.87,539.76,540.87,539.76,540.87,540.87,540.87,540.87,541.98,541.98,541.98,540.87,540.87,540.87,540.87,539.76,537.55,535.34,529.81,516.54,502.16,477.84,438.02,421.44,413.69,398.21,391.58,387.15,383.84,382.73,381.62,380.52,380.52,379.41,379.41,377.20,366.14,365.04,355.08,353.98,344.02,337.39,329.65,325.22,326.33,325.22,325.22,325.22,324.12,325.22,325.22,325.22,325.22,323.01
378.31,378.31,378.31,378.31,378.31,378.31,378.31,378.31,378.31,378.31,378.31,378.31,368.35,368.35,368.35,368.35,368.35,368.35,368.35,368.35,368.35,368.35,368.35,368.35,378.31,378.31,378.31,378.31,378.31,378.31,378.31,399.32,399.32,399.32,399.32,399.32,399.32,399.32,399.32,399.32,399.32,399.32,399.32,399.32,399.32,399.32,399.32,378.31,378.31,378.31,378.31,378.31,378.31,378.31,378.31,378.31,378.31,378.31,378.31,378.31,399.32,399.32,399.32,399.32,409.27,424.75,424.75,438.02,438.02,453.51,453.51,463.46,463.46,463.46,453.51,453.51,453.51,453.51,453.51,453.51,453.51,453.51,453.51,453.51,453.51,453.51,453.51,453.51,453.51,453.51,453.51,453.51,453.51,453.51,453.51,463.46,463.46,463.46,463.46,474.52,474.52,474.52,482.26,482.26,482.26,487.79,487.79,487.79,495.53,487.79,487.79,487.79,487.79,487.79,482.26,482.26,482.26,474.52,474.52,474.52,463.46,453.51,453.51,453.51,453.51,453.51,453.51,438.02,438.02,438.02,438.02,438.02,438.02,438.02,438.02,438.02,438.02,438.02,424.75,424.75,424.75,438.02,438.02,438.02,438.02,438.02,438.02,438.02,453.51,453.51,453.51,453.51,453.51,463.46,463.46,463.46,474.52,474.52,474.52,482.26,482.26,474.52,474.52,474.52,474.52,474.52,474.52,474.52,463.46,463.46,463.46,453.51,453.51,453.51,453.51,453.51,453.51,453.51,453.51,453.51,453.51,438.02,438.02,438.02,438.02,424.75,424.75,424.75,424.75,424.75,424.75,424.75,424.75,409.27,399.32,399.32,399.32,399.32,378.31,378.31,378.31,368.35,368.35,360.61,360.61,360.61,360.61,355.08,355.08,355.08,355.08,355.08,355.08,355.08,355.08,355.08,355.08,347.34,347.34,347.34,347.34,347.34,347.34,347.34,347.34,355.08,355.08,355.08,355.08,355.08,360.61,360.61,368.35,368.35,368.35,378.31,378.31,378.31,378.31,378.31,378.31,399.32,399.32,399.32,399.32,399.32,399.32,399.32,409.27,424.75,424.75,424.75,438.02,438.02,438.02,453.51,453.51,453.51,463.46,463.46,453.51,453.51,453.51,453.51,438.02,409.27,409.27,378.31,378.31,378.31,362.82,353.98,334.07,331.86,331.86,330.75,330.75,330.75,330.75,330.75,334.07,334.07,339.60,355.08,438.02,438.02,482.26,482.26,499.95,502.16,502.16,502.16,502.16,502.16,502.16,502.16,502.16,505.48,505.48,505.48,505.48,505.48,505.48,505.48,508.80,508.80,508.80,508.80,508.80,508.80,508.80,508.80,508.80,508.80,508.80,508.80,508.80,508.80,508.80,508.80,508.80,508.80,508.80,508.80,508.80,508.80,508.80,508.80,508.80,515.44,515.44,518.75,518.75,524.28,524.28,525.39,528.71,535.34,540.87,543.08,545.29,546.40,545.29,545.29,544.19,541.98,541.98,541.98,541.98,541.98,541.98,541.98,541.98,540.87,538.66,538.66,539.76,538.66,537.55,538.66,538.66,538.66,537.55,538.66,537.55,538.66,538.66,538.66,538.66,539.76,539.76,539.76,539.76,539.76,540.87,540.87,540.87,540.87,540.87,541.98,540.87,541.98,540.87,540.87,540.87,539.76,536.45,533.13,528.71,515.44,496.64,475.62,435.81,421.44,402.64,393.79,390.47,384.94,382.73,381.62,380.52,379.41,379.41,379.41,379.41,378.31,379.41,378.31,379.41,378.31,376.09,367.25,356.19,349.55,342.92,335.18,327.44,326.33,326.33,326.33,325.22,324.12,324.12,324.12,323.01,324.12
378.31,378.31,378.31,378.31,378.31,378.31,378.31,378.31,378.31,378.31,378.31,378.31,378.31,368.35,368.35,368.35,368.35,368.35,368.35,368.35,368.35,368.35,368.35,368.35,378.31,378.31,378.31,378.31,378.31,378.31,378.31,399.32,399.32,399.32,399.32,399.32,399.32,399.32,399.32,399.32,399.32,399.32,399.32,399.32,399.32,399.32,399.32,399.32,399.32,378.31,378.31,378.31,378.31,378.31,378.31,378.31,378.31,378.31,378.31,378.31,399.32,399.32,399.32,399.32,409.27,424.75,424.75,438.02,438.02,453.51,453.51,453.51,463.46,453.51,453.51,453.51,453.51,453.51,453.51,453.51,453.51,453.51,453.51,453.51,453.51,453.51,453.51,453.51,453.51,453.51,453.51,453.51,453.51,453.51,453.51,453.51,453.51,453.51,463.46,474.52,474.52,474.52,482.26,482.26,482.26,487.79,487.79,487.79,495.53,487.79,487.79,487.79,487.79,487.79,482.26,482.26,482.26,474.52,474.52,474.52,463.46,453.51,453.51,453.51,453.51,453.51,453.51,453.51,438.02,438.02,438.02,438.02,438.02,438.02,438.02,438.02,438.02,438.02,424.75,424.75,424.75,438.02,438.02,438.02,438.02,438.02,453.51,453.51,453.51,453.51,453.51,453.51,463.46,463.46,463.46,474.52,474.52,474.52,482.26,482.26,482.26,482.26,474.52,474.52,474.52,474.52,474.52,474.52,474.52,474.52,463.46,453.51,453.51,453.51,453.51,453.51,453.51,453.51,453.51,453.51,438.02,438.02,438.02,438.02,424.75,424.75,424.75,424.75,424.75,424.75,424.75,409.27,409.27,409.27,399.32,399.32,399.32,399.32,378.31,378.31,378.31,368.35,368.35,368.35,360.61,360.61,360.61,360.61,360.61,360.61,355.08,355.08,355.08,355.08,355.08,355.08,355.08,347.34,347.34,347.34,347.34,347.34,347.34,347.34,347.34,355.08,355.08,355.08,355.08,355.08,360.61,360.61,368.35,368.35,368.35,378.31,378.31,378.31,378.31,378.31,378.31,399.32,399.32,399.32,399.32,399.32,399.32,399.32,409.27,409.27,409.27,424.75,438.02,438.02,438.02,453.51,453.51,453.51,463.46,463.46,453.51,453.51,453.51,453.51,438.02,409.27,409.27,378.31,378.31,378.31,363.93,355.08,336.28,331.86,331.86,330.75,330.75,330.75,330.75,330.75,334.07,334.07,339.60,355.08,438.02,438.02,482.26,482.26,499.95,502.16,502.16,502.16,502.16,502.16,502.16,502.16,502.16,505.48,505.48,505.48,505.48,505.48,505.48,505.48,508.80,508.80,508.80,508.80,508.80,508.80,508.80,508.80,508.80,508.80,508.80,508.80,508.80,508.80,508.80,508.80,508.80,508.80,508.80,508.80,508.80,508.80,508.80,508.80,508.80,508.80,515.44,515.44,515.44,515.44,516.54,518.75,519.86,524.28,533.13,538.66,544.19,544.19,544.19,544.19,543.08,541.98,541.98,541.98,541.98,541.98,541.98,541.98,540.87,541.98,540.87,539.76,539.76,538.66,538.66,538.66,538.66,537.55,538.66,538.66,538.66,537.55,539.76,538.66,539.76,538.66,539.76,539.76,539.76,540.87,539.76,540.87,539.76,540.87,540.87,540.87,540.87,540.87,539.76,538.66,535.34,532.02,524.28,511.01,492.21,473.41,432.49,419.22,399.32,392.68,388.26,383.84,381.62,380.52,380.52,379.41,379.41,379.41,379.41,379.41,377.20,379.41,377.20,379.41,378.31,378.31,379.41,380.52,377.20,367.25,355.08,352.87,342.92,335.18,328.54,325.22,326.33,324.12,325.22,324.12,325.22,325.22
378.31,378.31,378.31,378.31,378.31,378.31,378.31,378.31,378.31,378.31,378.31,378.31,378.31,368.35,368.35,368.35,368.35,368.35,368.35,368.35,368.35,368.35,368.35,368.35,368.35,368.35,368.35,378.31,378.31,378.31,378.31,378.31,378.31,378.31,399.32,399.32,399.32,399.32,399.32,399.32,399.32,399.32,399.32,399.32,399.32,399.32,399.32,399.32,399.32,378.31,378.31,378.31,378.31,378.31,378.31,378.31,378.31,378.31,378.31,378.31,399.32,399.32,399.32,399.32,409.27,424.75,424.75,438.02,438.02,453.51,453.51,453.51,463.46,453.51,453.51,453.51,453.51,453.51,453.51,453.51,453.51,453.51,453.51,438.02,438.02,453.51,453.51,453.51,453.51,453.51,453.51,453.51,453.51,438.02,438.02,453.51,453.51,453.51,463.46,463.46,463.46,474.52,482.26,482.26,482.26,487.79,487.79,487.79,495.53,495.53,495.53,495.53,487.79,487.79,487.79,482.26,482.26,482.26,474.52,474.52,474.52,463.46,453.51,453.51,453.51,453.51,453.51,453.51,438.02,438.02,438.02,438.02,438.02,438.02,438.02,438.02,438.02,438.02,424.75,424.75,424.75,438.02,438.02,438.02,438.02,438.02,453.51,453.51,453.51,453.51,453.51,453.51,463.46,463.46,463.46,474.52,474.52,474.52,482.26,482.26,482.26,482.26,474.52,474.52,474.52,482.26,482.26,474.52,474.52,470.09,463.46,463.46,453.51,453.51,453.51,453.51,453.51,453.51,453.51,453.51,438.02,438.02,438.02,438.02,424.75,424.75,424.75,424.75,424.75,424.75,424.75,409.27,409.27,409.27,399.32,399.32,399.32,399.32,399.32,378.31,378.31,368.35,368.35,368.35,360.61,360.61,360.61,360.61,360.61,360.61,355.08,355.08,355.08,355.08,355.08,355.08,355.08,347.34,347.34,347.34,347.34,347.34,347.34,347.34,347.34,355.08,355.08,355.08,355.08,355.08,360.61,360.61,360.61,368.35,368.35,378.31,378.31,378.31,378.31,378.31,378.31,399.32,399.32,399.32,399.32,399.32,399.32,399.32,399.32,409.27,409.27,424.75,424.75,424.75,438.02,453.51,453.51,453.51,453.51,453.51,453.51,453.51,453.51,453.51,438.02,409.27,409.27,378.31,378.31,378.31,365.04,356.19,336.28,331.86,331.86,330.75,330.75,330.75,330.75,330.75,334.07,334.07,339.60,355.08,438.02,438.02,482.26,482.26,499.95,502.16,502.16,502.16,502.16,502.16,502.16,502.16,502.16,505.48,505.48,505.48,505.48,505.48,505.48,505.48,508.80,508.80,508.80,508.80,508.80,508.80,508.80,508.80,508.80,508.80,508.80,508.80,508.80,508.80,508.80,508.80,508.80,508.80,508.80,508.80,508.80,508.80,508.80,508.80,508.80,508.80,508.80,508.80,508.80,515.44,514.33,514.33,515.44,516.54,526.49,534.24,544.19,545.29,544.19,544.19,543.08,544.19,543.08,541.98,541.98,544.19,541.98,541.98,541.98,541.98,540.87,539.76,539.76,538.66,539.76,538.66,538.66,538.66,537.55,539.76,537.55,539.76,537.55,539.76,538.66,540.87,538.66,539.76,539.76,539.76,540.87,539.76,540.87,539.76,540.87,539.76,539.76,538.66,535.34,532.02,513.22,496.64,475.62,465.67,425.86,417.01,397.11,390.47,384.94,382.73,380.52,379.41,379.41,379.41,378.31,378.31,377.20,377.20,377.20,378.31,377.20,379.41,378.31,377.20,379.41,379.41,379.41,378.31,379.41,378.31,377.20,367.25,355.08,353.98,344.02,336.28,328.54,327.44,325.22,326.33,323.01,323.01
378.31,399.32,399.32,399.32,378.31,378.31,378.31,378.31,378.31,378.31,378.31,378.31,378.31,378.31,368.35,368.35,368.35,368.35,368.35,368.35,368.35,368.35,368.35,368.35,368.35,368.35,368.35,368.35,378.31,378.31,378.31,378.31,378.31,378.31,378.31,378.31,378.31,399.32,399.32,399.32,399.32,399.32,399.32,399.32,399.32,399.32,399.32,399.32,399.32,378.31,378.31,378.31,378.31,378.31,378.31,378.31,378.31,378.31,378.31,378.31,399.32,399.32,399.32,399.32,409.27,424.75,424.75,424.75,438.02,453.51,453.51,453.51,453.51,453.51,453.51,453.51,453.51,453.51,453.51,453.51,453.51,453.51,453.51,438.02,438.02,453.51,453.51,453.51,453.51,453.51,453.51,453.51,453.51,438.02,438.02,453.51,453.51,453.51,463.46,463.46,463.46,474.52,482.26,482.26,482.26,487.79,495.53,495.53,495.53,495.53,495.53,495.53,495.53,495.53,487.79,487.79,487.79,482.26,482.26,482.26,474.52,474.52,463.46,463.46,453.51,453.51,453.51,453.51,453.51,453.51,438.02,438.02,438.02,438.02,438.02,438.02,438.02,438.02,438.02,438.02,438.02,438.02,438.02,438.02,438.02,453.51,453.51,453.51,453.51,463.46,463.46,463.46,474.52,474.52,474.52,474.52,482.26,482.26,482.26,487.79,487.79,482.26,482.26,482.26,482.26,482.26,482.26,474.52,474.52,474.52,463.46,463.46,453.51,453.51,453.51,453.51,453.51,453.51,453.51,453.51,438.02,438.02,438.02,438.02,424.75,424.75,424.75,409.27,409.27,409.27,409.27,409.27,409.27,409.27,399.32,399.32,399.32,399.32,399.32,378.31,378.31,368.35,368.35,368.35,360.61,360.61,360.61,360.61,360.61,360.61,355.08,355.08,355.08,355.08,355.08,355.08,355.08,347.34,347.34,347.34,347.34,347.34,347.34,347.34,347.34,355.08,355.08,355.08,355.08,355.08,360.61,360.61,360.61,368.35,368.35,378.31,378.31,378.31,378.31,378.31,378.31,378.31,399.32,399.32,399.32,399.32,399.32,399.32,399.32,409.27,409.27,424.75,424.75,424.75,438.02,438.02,453.51,453.51,453.51,453.51,453.51,453.51,453.51,438.02,438.02,409.27,409.27,378.31,378.31,378.31,369.46,358.40,336.28,334.07,334.07,330.75,330.75,330.75,330.75,330.75,334.07,334.07,336.28,347.34,424.75,424.75,474.52,474.52,499.95,502.16,502.16,502.16,502.16,502.16,502.16,502.16,502.16,505.48,505.48,505.48,505.48,505.48,505.48,505.48,508.80,508.80,508.80,508.80,508.80,508.80,508.80,508.80,508.80,508.80,508.80,508.80,508.80,508.80,508.80,505.48,505.48,508.80,505.48,505.48,508.80,508.80,508.80,508.80,508.80,508.80,508.80,508.80,508.80,512.12,513.22,514.33,515.44,516.54,519.86,505.48,535.34,545.29,544.19,543.08,543.08,543.08,543.08,543.08,541.98,541.98,541.98,543.08,541.98,540.87,541.98,540.87,539.76,539.76,539.76,539.76,538.66,538.66,538.66,538.66,538.66,538.66,538.66,539.76,538.66,538.66,539.76,538.66,540.87,539.76,539.76,539.76,539.76,539.76,539.76,538.66,533.13,529.81,513.22,497.74,473.41,446.87,419.22,407.06,392.68,388.26,382.73,381.62,379.41,379.41,378.31,378.31,377.20,378.31,377.20,378.31,377.20,378.31,377.20,378.31,378.31,377.20,378.31,379.41,378.31,378.31,378.31,379.41,378.31,379.41,379.41,378.31,378.31,367.25,355.08,352.87,342.92,337.39,328.54,324.12,326.33,325.22
378.31,399.32,399.32,399.32,399.32,399.32,378.31,378.31,378.31,378.31,378.31,378.31,378.31,378.31,378.31,378.31,378.31,378.31,378.31,378.31,368.35,368.35,368.35,368.35,368.35,368.35,368.35,368.35,378.31,368.35,368.35,368.35,368.35,378.31,378.31,378.31,378.31,378.31,399.32,399.32,399.32,399.32,399.32,399.32,399.32,399.32,399.32,399.32,399.32,378.31,378.31,378.31,378.31,378.31,378.31,378.31,378.31,378.31,399.32,399.32,399.32,399.32,399.32,399.32,409.27,424.75,424.75,424.75,438.02,453.51,453.51,453.51,453.51,453.51,453.51,453.51,453.51,453.51,453.51,453.51,438.02,438.02,438.02,438.02,438.02,438.02,438.02,438.02,438.02,438.02,438.02,438.02,438.02,438.02,438.02,438.02,453.51,453.51,453.51,463.46,463.46,474.52,482.26,482.26,482.26,487.79,495.53,495.53,495.53,495.53,495.53,495.53,495.53,495.53,495.53,487.79,487.79,487.79,482.26,482.26,482.26,474.52,463.46,463.46,463.46,453.51,453.51,453.51,453.51,453.51,453.51,438.02,438.02,438.02,438.02,438.02,438.02,438.02,438.02,438.02,438.02,438.02,438.02,438.02,453.51,453.51,453.51,453.51,463.46,463.46,463.46,474.52,474.52,474.52,474.52,482.26,482.26,482.26,487.79,487.79,487.79,487.79,482.26,482.26,482.26,482.26,482.26,474.52,474.52,474.52,463.46,463.46,453.51,453.51,453.51,453.51,453.51,453.51,453.51,453.51,438.02,438.02,438.02,438.02,424.75,424.75,424.75,409.27,409.27,409.27,409.27,409.27,409.27,409.27,399.32,399.32,399.32,399.32,399.32,378.31,378.31,368.35,368.35,368.35,360.61,360.61,360.61,360.61,360.61,355.08,355.08,355.08,355.08,355.08,355.08,355.08,355.08,347.34,347.34,347.34,347.34,347.34,347.34,347.34,347.34,347.34,347.34,355.08,355.08,355.08,360.61,360.61,360.61,360.61,368.35,368.35,368.35,378.31,378.31,378.31,378.31,378.31,399.32,399.32,399.32,399.32,399.32,399.32,399.32,409.27,409.27,424.75,424.75,424.75,438.02,438.02,453.51,453.51,453.51,453.51,453.51,453.51,453.51,438.02,438.02,409.27,409.27,399.32,399.32,388.26,367.25,356.19,339.60,334.07,334.07,331.86,330.75,330.75,330.75,330.75,334.07,334.07,336.28,341.81,424.75,424.75,474.52,474.52,499.95,502.16,502.16,502.16,502.16,502.16,502.16,502.16,502.16,505.48,505.48,505.48,505.48,505.48,505.48,505.48,508.80,508.80,508.80,508.80,508.80,508.80,508.80,508.80,508.80,508.80,508.80,508.80,508.80,508.80,505.48,505.48,505.48,508.80,505.48,505.48,508.80,508.80,508.80,508.80,508.80,508.80,508.80,508.80,508.80,509.91,511.01,513.22,513.22,512.12,499.95,487.79,481.15,502.16,534.24,544.19,544.19,543.08,541.98,543.08,543.08,541.98,541.98,541.98,543.08,541.98,541.98,540.87,540.87,539.76,539.76,538.66,539.76,538.66,538.66,538.66,539.76,538.66,539.76,538.66,538.66,540.87,538.66,540.87,539.76,539.76,539.76,539.76,539.76,538.66,534.24,524.28,509.91,493.32,467.88,443.55,419.22,396.00,388.26,382.73,381.62,379.41,378.31,378.31,378.31,377.20,378.31,376.09,378.31,376.09,378.31,377.20,378.31,377.20,378.31,377.20,378.31,378.31,378.31,377.20,379.41,378.31,379.41,378.31,379.41,378.31,380.52,379.41,379.41,379.41,377.20,368.35,356.19,349.55,342.92,330.75,325.22,325.22
