319.87,320.98,318.76,320.98,320.98,322.09,320.98,323.20,325.42,325.42,328.75,328.75,330.96,332.07,332.07,330.96,332.07,332.07,333.18,332.07,332.07,333.18,333.18,332.07,332.07,334.29,334.29,332.07,332.07,334.29,334.29,333.18,333.18,335.40,334.29,334.29,335.40,334.29,335.40,335.40,338.73,336.51,338.73,338.73,340.95,342.06,344.28,346.50,349.83,352.05,355.38,359.82,363.15,367.59,373.14,377.58,383.13,390.89,398.66,405.32,413.09,421.97,427.52,434.18,441.95,446.38,451.93,456.37,460.81,463.03,466.36,469.69,471.91,474.13,477.46,478.57,480.79,483.01,485.23,488.56,491.89,494.11,498.55,500.76,501.87,502.98,502.98,502.98,504.09,504.09,504.09,504.09,504.09,504.09,504.09,504.09,504.09,502.98,504.09,504.09,504.09,504.09,504.09,502.98,504.09,502.98,504.09,502.98,502.98,502.98,501.87,502.98,502.98,502.98,501.87,502.98,501.87,501.87,501.87,501.87,502.98,501.87,502.98,501.87,501.87,501.87,502.98,501.87,501.87,501.87,500.76,501.87,500.76,500.76,501.87,500.76,500.76,501.87,501.87,500.76,500.76,500.76,500.76,500.76,500.76,499.65,499.65,498.55,498.55,497.44,495.22,494.11,494.11,494.11,493.00,493.00,494.11,494.11,494.11,494.11,494.11,494.11,495.22,496.33,496.33,495.22,494.11,493.00,494.11,494.11,493.00,493.00,493.00,491.89,490.78,490.78,489.67,489.67,488.56,489.67,487.45,489.67,489.67,490.78,489.67,489.67,493.00,493.00,500.76,500.76,500.76,500.76,500.76,500.76,500.76,500.76,500.76,500.76,501.87,507.42,524.07,528.51,538.50,540.72,541.83,544.05,544.05,544.05,544.05,544.05,544.05,544.05,544.05,544.05,544.05,544.05,544.05,544.05,550.71,550.71,550.71,550.71,550.71,550.71,550.71,550.71,550.71,550.71,550.71,550.71,550.71,550.71,549.60,549.60,549.60,549.60,549.60,549.60,549.60,549.60,549.60,549.60,549.60,549.60,549.60,549.60,549.60,549.60,549.60,549.60,549.60,549.60,549.60,549.60,549.60,549.60,549.60,549.60,549.60,549.60,549.60,549.60,546.27,546.27,546.27,546.27,546.27,542.94,542.94,539.61,539.61,539.61,539.61,539.61,537.39,537.39,538.50,538.50,486.34,450.82,376.47,362.04,362.04,362.04,362.04,362.04,362.04,362.04,367.59,372.03,377.58,377.58,385.35,398.66,408.65,408.65,419.75,445.27,445.27,445.27,455.26,463.03,463.03,476.35,484.12,480.79,486.34,498.55,506.31,516.30,528.51,526.29,537.39,537.39,537.39,537.39,537.39,537.39,537.39,537.39,537.39,537.39,537.39,537.39,537.39,537.39,537.39,537.39,532.95,532.95,532.95,526.29,526.29,526.29,526.29,521.85,521.85,521.85,521.85,521.85,521.85,521.85,510.75,510.75,510.75,510.75,510.75,510.75,510.75,510.75,510.75,510.75,521.85,521.85,521.85,521.85,521.85,521.85,521.85,521.85,521.85,521.85,521.85,526.29,526.29,526.29,526.29,526.29,521.85,521.85,510.75,505.20,505.20,501.87,491.89,491.89,484.12,463.03,463.03,455.26,445.27,445.27,445.27,445.27,445.27,445.27,445.27,455.26,455.26,455.26,455.26,463.03,476.35,476.35,484.12,491.89,499.65,499.65,501.87,505.20,505.20,505.20,510.75,510.75,505.20,505.20,505.20,505.20,505.20,505.20,505.20,501.87,501.87,501.87,501.87,501.87,501.87,501.87,499.65,499.65,499.65,491.89,491.89,484.12,476.35,476.35
319.87,318.76,319.87,318.76,320.98,320.98,322.09,320.98,322.09,325.42,325.42,327.64,329.85,330.96,330.96,330.96,333.18,330.96,332.07,333.18,332.07,332.07,332.07,334.29,332.07,332.07,332.07,334.29,334.29,333.18,333.18,334.29,334.29,334.29,334.29,335.40,334.29,334.29,335.40,335.40,335.40,336.51,337.62,338.73,339.84,340.95,343.17,345.39,348.72,352.05,354.27,357.60,362.04,366.48,370.92,377.58,382.02,388.67,395.33,403.10,410.87,418.64,425.30,433.07,438.62,444.16,449.71,454.15,457.48,463.03,465.25,468.58,470.80,474.13,475.24,478.57,480.79,484.12,486.34,489.67,491.89,493.00,496.33,498.55,500.76,501.87,502.98,502.98,502.98,502.98,504.09,502.98,504.09,502.98,504.09,502.98,504.09,504.09,505.20,502.98,505.20,502.98,504.09,504.09,502.98,504.09,502.98,504.09,502.98,504.09,502.98,504.09,501.87,502.98,501.87,502.98,501.87,502.98,501.87,502.98,501.87,502.98,501.87,501.87,502.98,501.87,501.87,502.98,501.87,501.87,501.87,500.76,501.87,501.87,500.76,500.76,501.87,500.76,500.76,501.87,500.76,500.76,500.76,500.76,500.76,499.65,499.65,498.55,498.55,497.44,496.33,495.22,494.11,493.00,494.11,493.00,493.00,493.00,494.11,493.00,494.11,494.11,494.11,497.44,497.44,494.11,494.11,493.00,494.11,493.00,493.00,494.11,490.78,490.78,490.78,490.78,489.67,489.67,489.67,487.45,484.12,489.67,489.67,489.67,489.67,489.67,493.00,493.00,493.00,493.00,500.76,500.76,493.00,500.76,500.76,500.76,500.76,500.76,500.76,505.20,522.96,530.73,541.83,542.94,541.83,544.05,544.05,544.05,544.05,544.05,544.05,544.05,544.05,544.05,544.05,544.05,544.05,544.05,544.05,550.71,550.71,550.71,550.71,550.71,550.71,550.71,550.71,550.71,550.71,550.71,550.71,550.71,549.60,549.60,549.60,549.60,549.60,549.60,549.60,549.60,549.60,549.60,549.60,549.60,549.60,549.60,549.60,549.60,549.60,549.60,549.60,549.60,549.60,549.60,549.60,549.60,549.60,549.60,549.60,549.60,549.60,549.60,546.27,546.27,546.27,546.27,546.27,542.94,542.94,542.94,539.61,539.61,539.61,539.61,539.61,539.61,539.61,539.61,487.45,456.37,376.47,362.04,362.04,362.04,362.04,362.04,362.04,362.04,367.59,372.03,377.58,377.58,385.35,398.66,408.65,408.65,419.75,445.27,445.27,445.27,455.26,463.03,463.03,471.91,480.79,485.23,491.89,500.76,510.75,517.41,524.07,528.51,531.84,535.17,536.28,537.39,537.39,537.39,538.50,539.61,539.61,539.61,539.61,539.61,537.39,537.39,537.39,537.39,537.39,532.95,532.95,532.95,526.29,526.29,526.29,521.85,521.85,521.85,521.85,521.85,521.85,521.85,521.85,510.75,510.75,510.75,510.75,510.75,510.75,510.75,510.75,510.75,521.85,521.85,521.85,521.85,521.85,521.85,521.85,521.85,521.85,521.85,521.85,526.29,526.29,526.29,526.29,526.29,521.85,521.85,510.75,505.20,505.20,501.87,491.89,491.89,484.12,463.03,463.03,455.26,445.27,445.27,445.27,445.27,445.27,463.03,463.03,463.03,463.03,463.03,463.03,476.35,484.12,484.12,491.89,499.65,501.87,501.87,505.20,505.20,505.20,510.75,510.75,510.75,510.75,505.20,505.20,505.20,505.20,505.20,505.20,501.87,501.87,501.87,501.87,501.87,501.87,501.87,499.65,499.65,499.65,491.89,491.89,484.12,484.12,484.12
318.76,319.87,319.87,319.87,320.98,319.87,320.98,320.98,322.09,322.09,323.20,325.42,326.53,329.85,332.07,332.07,332.07,334.29,332.07,332.07,334.29,334.29,332.07,333.18,333.18,334.29,333.18,333.18,333.18,334.29,335.40,333.18,334.29,335.40,334.29,334.29,336.51,336.51,335.40,336.51,337.62,336.51,337.62,338.73,339.84,340.95,343.17,345.39,347.61,350.94,354.27,357.60,360.93,365.37,369.81,374.25,380.91,386.45,394.22,399.77,408.65,416.42,423.08,429.74,436.40,443.05,447.49,451.93,457.48,459.70,464.14,467.47,469.69,474.13,477.46,480.79,483.01,485.23,487.45,488.56,489.67,491.89,493.00,495.22,497.44,499.65,501.87,501.87,502.98,502.98,502.98,502.98,504.09,502.98,504.09,502.98,504.09,502.98,504.09,502.98,502.98,504.09,502.98,504.09,502.98,502.98,504.09,502.98,504.09,501.87,502.98,501.87,504.09,501.87,502.98,501.87,502.98,501.87,501.87,502.98,501.87,501.87,502.98,501.87,501.87,501.87,501.87,501.87,501.87,501.87,500.76,501.87,500.76,500.76,501.87,500.76,500.76,500.76,501.87,500.76,500.76,500.76,500.76,500.76,500.76,500.76,499.65,499.65,498.55,498.55,496.33,495.22,494.11,494.11,493.00,494.11,493.00,494.11,493.00,493.00,494.11,493.00,493.00,500.76,500.76,493.00,493.00,493.00,494.11,493.00,493.00,491.89,493.00,490.78,490.78,490.78,489.67,489.67,489.67,489.67,484.12,489.67,489.67,489.67,489.67,489.67,489.67,489.67,489.67,489.67,493.00,493.00,493.00,493.00,493.00,493.00,500.76,500.76,499.65,502.98,522.96,530.73,542.94,542.94,541.83,541.83,541.83,541.83,544.05,544.05,544.05,544.05,544.05,544.05,544.05,544.05,544.05,544.05,544.05,544.05,544.05,544.05,550.71,550.71,550.71,550.71,550.71,550.71,550.71,550.71,550.71,550.71,550.71,550.71,550.71,550.71,550.71,549.60,549.60,549.60,549.60,549.60,549.60,549.60,549.60,549.60,549.60,549.60,549.60,549.60,549.60,549.60,549.60,549.60,549.60,549.60,549.60,549.60,549.60,549.60,549.60,549.60,546.27,546.27,546.27,546.27,546.27,542.94,542.94,542.94,539.61,539.61,539.61,539.61,539.61,539.61,539.61,539.61,499.65,458.59,384.24,363.15,362.04,362.04,362.04,362.04,362.04,362.04,362.04,372.03,377.58,377.58,385.35,398.66,408.65,408.65,419.75,445.27,445.27,445.27,463.03,464.14,470.80,478.57,484.12,490.78,497.44,505.20,512.97,520.74,525.18,527.40,530.73,534.06,535.17,537.39,537.39,537.39,538.50,538.50,538.50,539.61,539.61,539.61,537.39,537.39,537.39,537.39,537.39,532.95,532.95,532.95,526.29,526.29,526.29,526.29,526.29,521.85,521.85,521.85,521.85,521.85,521.85,521.85,521.85,521.85,521.85,510.75,510.75,510.75,510.75,521.85,521.85,521.85,521.85,521.85,521.85,521.85,521.85,521.85,521.85,526.29,526.29,526.29,526.29,526.29,532.95,526.29,526.29,521.85,521.85,521.85,510.75,510.75,501.87,499.65,499.65,491.89,476.35,476.35,463.03,463.03,463.03,463.03,463.03,463.03,463.03,463.03,463.03,463.03,463.03,476.35,484.12,484.12,491.89,499.65,501.87,501.87,505.20,505.20,505.20,510.75,510.75,510.75,510.75,505.20,505.20,505.20,505.20,505.20,505.20,501.87,501.87,501.87,501.87,501.87,501.87,501.87,499.65,499.65,499.65,491.89,491.89,491.89,484.12,484.12
318.76,320.98,318.76,319.87,320.98,320.98,320.98,320.98,322.09,320.98,322.09,324.31,326.53,326.53,327.64,330.96,330.96,332.07,334.29,333.18,332.07,332.07,334.29,333.18,333.18,332.07,334.29,334.29,334.29,333.18,334.29,333.18,334.29,334.29,335.40,334.29,335.40,335.40,335.40,335.40,335.40,337.62,337.62,337.62,338.73,340.95,343.17,344.28,347.61,349.83,353.16,356.49,359.82,363.15,368.70,373.14,378.69,384.24,390.89,398.66,405.32,414.20,420.86,428.63,434.18,439.73,446.38,449.71,454.15,459.70,461.92,468.58,474.13,478.57,481.90,484.12,485.23,487.45,487.45,488.56,488.56,489.67,490.78,493.00,495.22,497.44,499.65,500.76,501.87,502.98,502.98,502.98,502.98,502.98,504.09,502.98,505.20,502.98,502.98,504.09,502.98,504.09,502.98,504.09,502.98,504.09,502.98,502.98,502.98,502.98,502.98,502.98,501.87,502.98,501.87,501.87,502.98,501.87,502.98,501.87,502.98,501.87,501.87,501.87,502.98,501.87,502.98,501.87,502.98,500.76,501.87,500.76,501.87,501.87,500.76,500.76,501.87,500.76,500.76,501.87,500.76,500.76,500.76,500.76,500.76,500.76,499.65,499.65,498.55,498.55,497.44,495.22,494.11,494.11,494.11,493.00,493.00,493.00,493.00,494.11,493.00,493.00,493.00,500.76,500.76,493.00,493.00,493.00,494.11,493.00,491.89,493.00,491.89,490.78,490.78,490.78,490.78,489.67,489.67,489.67,489.67,489.67,489.67,489.67,489.67,489.67,489.67,489.67,489.67,489.67,493.00,493.00,493.00,493.00,493.00,493.00,500.76,500.76,498.55,498.55,520.74,530.73,538.50,542.94,541.83,541.83,541.83,541.83,544.05,544.05,544.05,544.05,544.05,544.05,544.05,544.05,544.05,544.05,544.05,544.05,544.05,544.05,544.05,544.05,544.05,550.71,550.71,550.71,550.71,550.71,550.71,550.71,550.71,550.71,550.71,550.71,550.71,550.71,550.71,550.71,550.71,549.60,549.60,549.60,549.60,549.60,549.60,549.60,549.60,549.60,549.60,549.60,549.60,549.60,549.60,549.60,549.60,549.60,549.60,549.60,549.60,549.60,546.27,546.27,546.27,546.27,546.27,542.94,542.94,542.94,542.94,542.94,539.61,539.61,539.61,539.61,539.61,538.50,500.76,464.14,394.22,362.04,362.04,362.04,362.04,362.04,362.04,362.04,362.04,367.59,372.03,372.03,385.35,398.66,408.65,408.65,419.75,445.27,445.27,445.27,463.03,476.35,476.35,484.12,491.89,499.65,499.65,505.20,510.75,521.85,521.85,521.85,526.29,532.95,532.95,537.39,537.39,537.39,537.39,539.61,539.61,539.61,539.61,539.61,537.39,537.39,537.39,537.39,537.39,532.95,532.95,532.95,526.29,526.29,526.29,526.29,526.29,521.85,521.85,521.85,521.85,521.85,521.85,521.85,521.85,521.85,521.85,521.85,521.85,521.85,521.85,521.85,521.85,521.85,521.85,521.85,521.85,521.85,526.29,526.29,526.29,526.29,526.29,532.95,532.95,532.95,532.95,532.95,532.95,526.29,526.29,521.85,521.85,521.85,521.85,510.75,510.75,501.87,499.65,499.65,491.89,491.89,491.89,484.12,484.12,484.12,484.12,484.12,484.12,484.12,484.12,484.12,491.89,491.89,499.65,499.65,501.87,501.87,505.20,505.20,505.20,510.75,510.75,510.75,510.75,505.20,505.20,505.20,505.20,505.20,505.20,501.87,501.87,501.87,501.87,501.87,501.87,501.87,499.65,499.65,499.65,491.89,491.89,491.89,484.12,484.12
319.87,318.76,318.76,320.98,319.87,319.87,319.87,320.98,320.98,320.98,322.09,322.09,323.20,324.31,327.64,328.75,330.96,332.07,332.07,332.07,334.29,333.18,332.07,333.18,334.29,334.29,334.29,333.18,334.29,333.18,335.40,334.29,334.29,334.29,334.29,335.40,334.29,336.51,335.40,335.40,336.51,336.51,337.62,337.62,339.84,339.84,340.95,344.28,346.50,348.72,352.05,355.38,358.71,363.15,367.59,372.03,377.58,383.13,388.67,395.33,404.21,410.87,418.64,424.19,431.96,437.51,443.05,448.60,454.15,460.81,468.58,475.24,477.46,481.90,485.23,487.45,487.45,486.34,487.45,487.45,487.45,488.56,488.56,490.78,491.89,494.11,496.33,498.55,500.76,501.87,501.87,502.98,502.98,502.98,502.98,502.98,502.98,504.09,502.98,504.09,502.98,504.09,502.98,504.09,502.98,502.98,502.98,504.09,501.87,502.98,501.87,502.98,501.87,502.98,501.87,502.98,501.87,502.98,501.87,502.98,501.87,501.87,502.98,501.87,501.87,500.76,501.87,501.87,501.87,501.87,500.76,501.87,500.76,500.76,501.87,500.76,500.76,500.76,501.87,500.76,500.76,501.87,500.76,500.76,500.76,500.76,500.76,499.65,499.65,498.55,497.44,496.33,495.22,494.11,493.00,493.00,493.00,493.00,494.11,493.00,493.00,493.00,493.00,493.00,493.00,493.00,493.00,493.00,493.00,493.00,493.00,493.00,493.00,490.78,489.67,489.67,489.67,489.67,489.67,489.67,489.67,489.67,489.67,489.67,489.67,484.12,484.12,489.67,489.67,489.67,493.00,493.00,489.67,489.67,493.00,493.00,500.76,500.76,497.44,498.55,516.30,526.29,538.50,541.83,542.94,542.94,539.61,541.83,541.83,544.05,544.05,544.05,544.05,544.05,544.05,544.05,544.05,544.05,544.05,544.05,544.05,544.05,544.05,544.05,544.05,550.71,550.71,550.71,550.71,550.71,550.71,550.71,550.71,550.71,550.71,550.71,550.71,550.71,550.71,550.71,550.71,549.60,549.60,549.60,549.60,549.60,549.60,549.60,549.60,549.60,549.60,549.60,549.60,549.60,549.60,549.60,549.60,549.60,549.60,549.60,549.60,549.60,549.60,549.60,546.27,546.27,546.27,546.27,542.94,542.94,542.94,542.94,542.94,542.94,542.94,542.94,538.50,536.28,530.73,465.25,405.32,362.04,362.04,362.04,362.04,362.04,362.04,362.04,362.04,367.59,372.03,372.03,385.35,398.66,408.65,408.65,419.75,445.27,455.26,455.26,463.03,476.35,476.35,484.12,491.89,499.65,499.65,505.20,510.75,521.85,521.85,521.85,526.29,532.95,532.95,532.95,537.39,537.39,537.39,539.61,539.61,539.61,539.61,539.61,539.61,537.39,537.39,537.39,537.39,537.39,532.95,532.95,526.29,526.29,526.29,526.29,526.29,521.85,521.85,521.85,521.85,521.85,521.85,521.85,521.85,521.85,521.85,521.85,521.85,521.85,521.85,521.85,521.85,521.85,521.85,521.85,521.85,521.85,526.29,526.29,526.29,526.29,526.29,532.95,532.95,532.95,532.95,532.95,532.95,526.29,526.29,526.29,521.85,521.85,521.85,521.85,521.85,510.75,505.20,505.20,501.87,501.87,501.87,499.65,499.65,499.65,499.65,499.65,491.89,491.89,491.89,491.89,499.65,499.65,499.65,501.87,501.87,501.87,505.20,505.20,505.20,510.75,510.75,510.75,510.75,505.20,505.20,505.20,505.20,505.20,505.20,501.87,501.87,501.87,501.87,501.87,501.87,501.87,501.87,501.87,499.65,491.89,491.89,491.89,484.12,484.12
319.87,319.87,319.87,319.87,319.87,320.98,320.98,319.87,320.98,320.98,320.98,320.98,322.09,322.09,324.31,326.53,328.75,330.96,333.18,334.29,333.18,333.18,334.29,334.29,333.18,334.29,333.18,334.29,334.29,334.29,334.29,335.40,334.29,335.40,334.29,336.51,335.40,335.40,336.51,336.51,336.51,336.51,336.51,338.73,338.73,339.84,342.06,343.17,346.50,347.61,350.94,354.27,357.60,362.04,365.37,370.92,375.36,380.91,387.56,394.22,400.88,408.65,416.42,423.08,429.74,436.40,441.95,450.82,460.81,469.69,474.13,478.57,484.12,486.34,487.45,486.34,487.45,487.45,486.34,487.45,486.34,487.45,487.45,487.45,489.67,490.78,494.11,496.33,497.44,499.65,500.76,501.87,501.87,502.98,502.98,502.98,502.98,504.09,502.98,502.98,502.98,504.09,502.98,504.09,502.98,504.09,502.98,504.09,501.87,502.98,502.98,501.87,502.98,502.98,501.87,501.87,501.87,502.98,501.87,501.87,502.98,501.87,501.87,501.87,501.87,501.87,502.98,501.87,502.98,501.87,501.87,500.76,501.87,501.87,500.76,500.76,501.87,500.76,500.76,501.87,500.76,500.76,501.87,500.76,500.76,500.76,500.76,499.65,499.65,499.65,498.55,496.33,495.22,494.11,493.00,493.00,493.00,493.00,491.89,493.00,493.00,493.00,493.00,493.00,493.00,493.00,493.00,493.00,493.00,493.00,493.00,491.89,493.00,491.89,489.67,489.67,489.67,489.67,489.67,489.67,489.67,489.67,489.67,489.67,489.67,484.12,484.12,489.67,489.67,489.67,489.67,489.67,489.67,489.67,489.67,489.67,493.00,493.00,495.22,498.55,517.41,528.51,538.50,538.50,538.50,541.83,539.61,539.61,541.83,544.05,544.05,544.05,544.05,544.05,544.05,544.05,544.05,544.05,544.05,544.05,544.05,544.05,544.05,544.05,544.05,544.05,544.05,544.05,544.05,550.71,550.71,550.71,550.71,550.71,550.71,550.71,550.71,550.71,550.71,550.71,550.71,550.71,549.60,549.60,549.60,549.60,549.60,549.60,549.60,549.60,549.60,549.60,549.60,549.60,549.60,549.60,549.60,549.60,549.60,549.60,549.60,549.60,549.60,549.60,546.27,546.27,546.27,546.27,542.94,542.94,542.94,542.94,542.94,542.94,542.94,532.95,532.95,532.95,535.17,483.01,444.16,378.69,362.04,362.04,346.50,346.50,362.04,362.04,362.04,367.59,372.03,372.03,385.35,398.66,408.65,408.65,445.27,445.27,455.26,455.26,476.35,484.12,484.12,491.89,499.65,501.87,501.87,505.20,510.75,521.85,521.85,521.85,526.29,532.95,532.95,532.95,537.39,537.39,537.39,539.61,539.61,539.61,537.39,537.39,537.39,537.39,537.39,537.39,532.95,532.95,532.95,526.29,526.29,526.29,526.29,521.85,521.85,521.85,521.85,521.85,521.85,521.85,521.85,521.85,521.85,521.85,521.85,521.85,521.85,521.85,521.85,521.85,521.85,521.85,521.85,521.85,526.29,526.29,526.29,526.29,526.29,526.29,532.95,532.95,532.95,532.95,532.95,532.95,532.95,526.29,526.29,526.29,521.85,521.85,521.85,521.85,521.85,510.75,505.20,505.20,501.87,501.87,501.87,499.65,499.65,499.65,499.65,499.65,491.89,491.89,491.89,491.89,499.65,499.65,499.65,501.87,501.87,501.87,505.20,505.20,505.20,505.20,510.75,510.75,510.75,505.20,505.20,505.20,505.20,505.20,505.20,505.20,505.20,501.87,501.87,501.87,501.87,501.87,501.87,501.87,499.65,499.65,499.65,491.89,484.12,484.12
318.76,319.87,319.87,318.76,320.98,319.87,320.98,319.87,322.09,319.87,323.20,320.98,323.20,322.09,323.20,324.31,327.64,328.75,329.85,332.07,332.07,334.29,333.18,333.18,334.29,334.29,334.29,333.18,334.29,334.29,333.18,334.29,334.29,334.29,334.29,335.40,334.29,336.51,335.40,335.40,336.51,336.51,336.51,337.62,339.84,339.84,340.95,343.17,345.39,347.61,350.94,353.16,356.49,360.93,364.26,369.81,374.25,379.80,385.35,392.00,399.77,405.32,413.09,420.86,427.52,438.62,451.93,461.92,467.47,475.24,483.01,486.34,486.34,486.34,486.34,487.45,486.34,486.34,487.45,486.34,487.45,486.34,486.34,487.45,488.56,488.56,490.78,493.00,495.22,497.44,499.65,500.76,501.87,501.87,501.87,502.98,502.98,501.87,502.98,502.98,502.98,502.98,504.09,502.98,504.09,502.98,502.98,502.98,502.98,501.87,502.98,501.87,501.87,501.87,501.87,502.98,501.87,501.87,502.98,501.87,501.87,501.87,502.98,501.87,501.87,500.76,501.87,501.87,500.76,501.87,500.76,501.87,500.76,500.76,501.87,500.76,500.76,500.76,501.87,500.76,500.76,501.87,500.76,500.76,501.87,500.76,500.76,500.76,499.65,499.65,498.55,497.44,495.22,494.11,493.00,493.00,491.89,493.00,493.00,493.00,493.00,493.00,493.00,493.00,493.00,493.00,493.00,493.00,493.00,493.00,493.00,493.00,493.00,493.00,493.00,489.67,489.67,489.67,489.67,489.67,489.67,489.67,489.67,489.67,489.67,484.12,484.12,489.67,489.67,489.67,489.67,489.67,489.67,489.67,493.00,493.00,493.00,493.00,495.22,501.87,516.30,525.18,535.17,536.28,538.50,538.50,539.61,540.72,539.61,541.83,541.83,541.83,544.05,544.05,544.05,544.05,544.05,544.05,544.05,544.05,544.05,544.05,544.05,544.05,544.05,544.05,544.05,544.05,544.05,544.05,544.05,544.05,550.71,550.71,550.71,550.71,550.71,550.71,550.71,550.71,550.71,550.71,550.71,550.71,550.71,550.71,550.71,550.71,550.71,550.71,550.71,550.71,549.60,549.60,549.60,549.60,549.60,549.60,549.60,549.60,549.60,549.60,549.60,549.60,546.27,546.27,546.27,546.27,546.27,546.27,542.94,542.94,542.94,542.94,542.94,532.95,532.95,532.95,535.17,484.12,444.16,374.25,363.15,357.60,346.50,346.50,346.50,346.50,362.04,367.59,372.03,372.03,385.35,398.66,408.65,408.65,445.27,445.27,455.26,455.26,476.35,484.12,484.12,491.89,499.65,501.87,501.87,505.20,510.75,521.85,521.85,521.85,521.85,521.85,526.29,532.95,532.95,532.95,537.39,537.39,537.39,537.39,537.39,537.39,537.39,537.39,537.39,537.39,532.95,532.95,532.95,526.29,526.29,526.29,526.29,521.85,521.85,521.85,521.85,521.85,521.85,521.85,521.85,521.85,521.85,521.85,521.85,521.85,521.85,521.85,521.85,521.85,521.85,521.85,521.85,526.29,526.29,526.29,526.29,532.95,532.95,532.95,532.95,532.95,532.95,532.95,532.95,532.95,532.95,526.29,526.29,526.29,526.29,526.29,521.85,521.85,521.85,521.85,510.75,510.75,510.75,505.20,505.20,505.20,501.87,501.87,501.87,499.65,499.65,499.65,499.65,499.65,499.65,499.65,499.65,501.87,501.87,501.87,505.20,505.20,505.20,505.20,505.20,505.20,505.20,505.20,505.20,505.20,505.20,505.20,505.20,505.20,505.20,501.87,501.87,501.87,501.87,501.87,501.87,501.87,499.65,499.65,499.65,491.89,484.12,484.12
318.76,318.76,320.98,318.76,320.98,319.87,320.98,320.98,320.98,320.98,320.98,320.98,320.98,320.98,323.20,323.20,323.20,325.42,329.85,329.85,332.07,333.18,332.07,334.29,334.29,333.18,334.29,334.29,334.29,334.29,335.40,335.40,335.40,335.40,335.40,336.51,335.40,335.40,336.51,337.62,336.51,336.51,337.62,338.73,337.62,338.73,340.95,342.06,344.28,346.50,349.83,353.16,355.38,359.82,364.26,367.59,372.03,378.69,384.24,390.89,396.44,403.10,410.87,425.30,440.84,453.04,459.70,470.80,479.68,486.34,486.34,487.45,486.34,487.45,486.34,486.34,487.45,486.34,486.34,486.34,486.34,487.45,486.34,486.34,487.45,487.45,488.56,490.78,493.00,494.11,496.33,498.55,499.65,500.76,500.76,501.87,501.87,502.98,502.98,502.98,502.98,501.87,504.09,501.87,502.98,502.98,502.98,502.98,502.98,502.98,502.98,502.98,504.09,501.87,502.98,501.87,502.98,501.87,502.98,501.87,502.98,501.87,501.87,501.87,501.87,500.76,501.87,501.87,500.76,501.87,500.76,500.76,501.87,500.76,500.76,501.87,500.76,501.87,500.76,500.76,501.87,500.76,501.87,500.76,500.76,500.76,500.76,499.65,499.65,500.76,499.65,497.44,496.33,495.22,493.00,493.00,493.00,493.00,493.00,493.00,493.00,493.00,489.67,493.00,493.00,493.00,493.00,493.00,489.67,489.67,493.00,493.00,493.00,493.00,493.00,489.67,489.67,489.67,489.67,489.67,489.67,489.67,489.67,489.67,489.67,484.12,484.12,484.12,489.67,489.67,489.67,489.67,489.67,489.67,493.00,493.00,500.76,500.76,497.44,506.31,514.08,531.84,534.06,534.06,536.28,536.28,536.28,536.28,539.61,541.83,541.83,541.83,544.05,544.05,544.05,544.05,544.05,544.05,544.05,544.05,544.05,544.05,544.05,544.05,544.05,544.05,544.05,544.05,544.05,544.05,544.05,544.05,550.71,550.71,550.71,550.71,550.71,550.71,550.71,550.71,550.71,550.71,550.71,550.71,550.71,550.71,550.71,550.71,550.71,550.71,550.71,550.71,550.71,550.71,550.71,550.71,550.71,549.60,549.60,549.60,549.60,549.60,549.60,549.60,549.60,546.27,546.27,546.27,546.27,546.27,546.27,542.94,542.94,542.94,542.94,539.61,539.61,539.61,538.50,505.20,436.40,399.77,355.38,349.83,338.73,338.73,346.50,346.50,362.04,362.04,362.04,372.03,385.35,398.66,408.65,408.65,445.27,455.26,463.03,463.03,476.35,484.12,484.12,491.89,499.65,501.87,501.87,505.20,510.75,521.85,521.85,521.85,521.85,521.85,526.29,526.29,532.95,532.95,532.95,532.95,532.95,537.39,537.39,537.39,532.95,532.95,532.95,532.95,532.95,532.95,526.29,526.29,526.29,526.29,521.85,521.85,521.85,521.85,521.85,521.85,521.85,521.85,521.85,521.85,521.85,521.85,521.85,521.85,521.85,521.85,521.85,521.85,521.85,521.85,521.85,526.29,526.29,526.29,526.29,532.95,532.95,532.95,532.95,532.95,532.95,532.95,532.95,532.95,532.95,532.95,526.29,526.29,526.29,526.29,521.85,521.85,521.85,521.85,521.85,521.85,510.75,510.75,510.75,505.20,505.20,501.87,501.87,501.87,499.65,499.65,499.65,499.65,499.65,499.65,501.87,501.87,501.87,501.87,501.87,505.20,505.20,505.20,505.20,505.20,505.20,505.20,505.20,505.20,505.20,505.20,501.87,501.87,501.87,501.87,501.87,501.87,501.87,501.87,501.87,501.87,499.65,499.65,499.65,499.65,491.89,491.89
319.87,319.87,318.76,318.76,320.98,319.87,320.98,320.98,320.98,320.98,320.98,320.98,322.09,322.09,322.09,323.20,323.20,324.31,325.42,327.64,329.85,333.18,333.18,333.18,334.29,334.29,334.29,334.29,335.40,335.40,334.29,335.40,334.29,335.40,335.40,335.40,335.40,336.51,335.40,335.40,336.51,336.51,336.51,337.62,338.73,339.84,340.95,342.06,344.28,346.50,348.72,350.94,354.27,358.71,362.04,366.48,372.03,376.47,382.02,387.56,394.22,409.76,428.63,443.05,451.93,465.25,477.46,487.45,486.34,487.45,486.34,485.23,486.34,486.34,486.34,487.45,486.34,486.34,487.45,487.45,485.23,486.34,486.34,486.34,486.34,487.45,487.45,488.56,489.67,491.89,494.11,496.33,497.44,499.65,499.65,500.76,500.76,501.87,501.87,502.98,501.87,502.98,501.87,502.98,502.98,501.87,504.09,501.87,501.87,502.98,501.87,501.87,501.87,501.87,501.87,501.87,502.98,501.87,501.87,501.87,501.87,502.98,501.87,501.87,500.76,501.87,500.76,501.87,500.76,500.76,501.87,500.76,501.87,500.76,501.87,500.76,501.87,500.76,500.76,501.87,500.76,501.87,500.76,501.87,500.76,501.87,500.76,500.76,500.76,499.65,500.76,498.55,496.33,495.22,494.11,493.00,493.00,493.00,489.67,489.67,489.67,489.67,489.67,489.67,489.67,489.67,489.67,489.67,489.67,489.67,493.00,493.00,493.00,493.00,493.00,489.67,489.67,489.67,489.67,489.67,489.67,489.67,489.67,489.67,489.67,484.12,484.12,484.12,484.12,484.12,489.67,489.67,489.67,489.67,489.67,489.67,500.76,500.76,498.55,511.86,516.30,531.84,534.06,534.06,536.28,536.28,536.28,536.28,539.61,541.83,541.83,541.83,544.05,544.05,544.05,544.05,544.05,544.05,544.05,544.05,544.05,544.05,544.05,544.05,544.05,544.05,544.05,544.05,544.05,544.05,544.05,544.05,544.05,544.05,550.71,550.71,550.71,550.71,550.71,550.71,550.71,550.71,550.71,550.71,550.71,550.71,550.71,550.71,550.71,550.71,550.71,550.71,550.71,550.71,550.71,550.71,550.71,549.60,549.60,549.60,549.60,549.60,549.60,549.60,549.60,546.27,546.27,546.27,546.27,546.27,542.94,542.94,546.27,546.27,542.94,542.94,542.94,542.94,541.83,519.63,437.51,395.33,346.50,342.06,338.73,338.73,346.50,346.50,362.04,362.04,362.04,372.03,385.35,398.66,419.75,419.75,445.27,455.26,463.03,463.03,476.35,484.12,484.12,491.89,499.65,501.87,501.87,505.20,510.75,510.75,510.75,521.85,521.85,521.85,521.85,521.85,526.29,526.29,526.29,532.95,532.95,532.95,532.95,532.95,532.95,532.95,532.95,532.95,526.29,526.29,526.29,526.29,526.29,521.85,521.85,521.85,521.85,521.85,521.85,521.85,521.85,521.85,521.85,521.85,521.85,521.85,521.85,521.85,521.85,521.85,521.85,521.85,521.85,526.29,526.29,526.29,526.29,526.29,526.29,526.29,526.29,526.29,526.29,526.29,526.29,532.95,532.95,532.95,532.95,532.95,526.29,526.29,526.29,526.29,521.85,521.85,521.85,521.85,521.85,521.85,510.75,510.75,510.75,505.20,505.20,501.87,501.87,501.87,499.65,499.65,499.65,499.65,499.65,499.65,501.87,501.87,501.87,501.87,501.87,505.20,505.20,505.20,505.20,505.20,505.20,505.20,505.20,505.20,505.20,505.20,501.87,501.87,501.87,501.87,501.87,501.87,501.87,501.87,501.87,501.87,499.65,499.65,499.65,499.65,491.89,491.89
318.76,318.76,319.87,319.87,320.98,319.87,319.87,320.98,320.98,320.98,320.98,322.09,320.98,320.98,320.98,322.09,322.09,322.09,323.20,325.42,327.64,328.75,332.07,332.07,333.18,334.29,334.29,334.29,333.18,334.29,334.29,336.51,335.40,335.40,335.40,336.51,335.40,335.40,336.51,337.62,336.51,336.51,337.62,337.62,337.62,338.73,340.95,342.06,344.28,345.39,348.72,350.94,354.27,357.60,362.04,365.37,369.81,375.36,379.80,392.00,417.53,434.18,444.16,458.59,474.13,486.34,486.34,486.34,487.45,486.34,487.45,486.34,487.45,486.34,487.45,485.23,486.34,487.45,485.23,486.34,485.23,487.45,485.23,487.45,486.34,486.34,486.34,486.34,487.45,488.56,490.78,493.00,495.22,496.33,498.55,499.65,500.76,500.76,500.76,501.87,501.87,501.87,501.87,502.98,502.98,502.98,501.87,502.98,501.87,501.87,502.98,501.87,502.98,501.87,502.98,501.87,501.87,501.87,502.98,501.87,502.98,500.76,501.87,501.87,500.76,501.87,501.87,500.76,501.87,500.76,501.87,500.76,501.87,500.76,500.76,501.87,500.76,500.76,501.87,500.76,501.87,500.76,501.87,500.76,500.76,500.76,500.76,500.76,499.65,500.76,500.76,499.65,497.44,493.00,493.00,493.00,493.00,493.00,489.67,489.67,489.67,489.67,489.67,489.67,489.67,489.67,489.67,489.67,489.67,489.67,493.00,493.00,493.00,493.00,493.00,489.67,489.67,489.67,489.67,489.67,489.67,489.67,489.67,489.67,484.12,484.12,484.12,484.12,484.12,484.12,489.67,489.67,484.12,489.67,489.67,489.67,500.76,500.76,501.87,512.97,520.74,530.73,531.84,531.84,536.28,536.28,536.28,536.28,539.61,539.61,539.61,541.83,541.83,541.83,541.83,541.83,541.83,544.05,544.05,544.05,544.05,544.05,544.05,544.05,544.05,544.05,544.05,544.05,544.05,544.05,544.05,544.05,544.05,544.05,544.05,544.05,544.05,550.71,550.71,550.71,550.71,550.71,550.71,550.71,550.71,550.71,550.71,550.71,550.71,550.71,550.71,550.71,550.71,550.71,550.71,550.71,550.71,549.60,549.60,549.60,549.60,549.60,549.60,549.60,549.60,546.27,546.27,546.27,546.27,546.27,542.94,542.94,546.27,546.27,542.94,542.94,542.94,542.94,542.94,527.40,438.62,393.11,340.95,339.84,338.73,338.73,346.50,346.50,362.04,362.04,362.04,372.03,385.35,398.66,408.65,408.65,445.27,455.26,463.03,463.03,476.35,484.12,484.12,491.89,499.65,501.87,501.87,501.87,505.20,510.75,510.75,521.85,521.85,521.85,521.85,521.85,526.29,526.29,526.29,532.95,532.95,532.95,532.95,532.95,532.95,532.95,532.95,532.95,526.29,526.29,526.29,526.29,526.29,521.85,521.85,521.85,521.85,521.85,521.85,521.85,521.85,521.85,521.85,521.85,521.85,521.85,521.85,521.85,521.85,521.85,521.85,521.85,521.85,521.85,521.85,526.29,526.29,526.29,526.29,526.29,526.29,526.29,526.29,526.29,526.29,526.29,526.29,526.29,526.29,526.29,526.29,526.29,526.29,526.29,521.85,521.85,521.85,521.85,521.85,521.85,510.75,510.75,510.75,505.20,505.20,501.87,501.87,501.87,499.65,499.65,499.65,499.65,499.65,499.65,499.65,501.87,501.87,501.87,501.87,505.20,505.20,505.20,505.20,505.20,505.20,505.20,505.20,505.20,505.20,505.20,501.87,501.87,501.87,501.87,501.87,501.87,501.87,501.87,501.87,501.87,499.65,499.65,499.65,499.65,491.89,491.89
319.87,319.87,319.87,319.87,319.87,320.98,319.87,320.98,320.98,320.98,320.98,320.98,322.09,320.98,323.20,320.98,323.20,320.98,323.20,323.20,325.42,327.64,329.85,332.07,333.18,333.18,334.29,334.29,335.40,335.40,335.40,334.29,334.29,336.51,335.40,335.40,336.51,337.62,335.40,336.51,337.62,337.62,336.51,338.73,337.62,339.84,339.84,342.06,342.06,345.39,347.61,349.83,352.05,356.49,359.82,364.26,368.70,380.91,400.88,426.41,436.40,453.04,471.91,486.34,487.45,486.34,487.45,486.34,486.34,486.34,486.34,486.34,485.23,486.34,485.23,486.34,485.23,485.23,486.34,487.45,485.23,486.34,485.23,485.23,486.34,486.34,486.34,486.34,486.34,487.45,488.56,489.67,491.89,493.00,495.22,497.44,498.55,499.65,500.76,500.76,500.76,501.87,501.87,501.87,501.87,502.98,501.87,502.98,501.87,502.98,501.87,504.09,501.87,502.98,501.87,501.87,501.87,501.87,501.87,501.87,501.87,501.87,501.87,500.76,501.87,500.76,501.87,500.76,500.76,501.87,501.87,500.76,501.87,500.76,501.87,500.76,500.76,501.87,500.76,501.87,500.76,500.76,500.76,501.87,500.76,500.76,500.76,501.87,500.76,500.76,500.76,500.76,500.76,500.76,493.00,493.00,493.00,493.00,489.67,489.67,489.67,489.67,489.67,489.67,489.67,489.67,489.67,489.67,489.67,489.67,493.00,493.00,493.00,493.00,493.00,493.00,493.00,489.67,489.67,489.67,489.67,489.67,489.67,489.67,489.67,484.12,484.12,484.12,484.12,484.12,489.67,489.67,484.12,489.67,489.67,489.67,500.76,500.76,505.20,516.30,524.07,529.62,531.84,531.84,536.28,536.28,536.28,536.28,539.61,539.61,539.61,541.83,541.83,541.83,541.83,541.83,541.83,544.05,544.05,544.05,544.05,544.05,544.05,544.05,544.05,544.05,544.05,544.05,544.05,544.05,544.05,544.05,544.05,544.05,544.05,544.05,544.05,544.05,544.05,544.05,544.05,550.71,550.71,550.71,550.71,550.71,550.71,550.71,550.71,550.71,550.71,550.71,550.71,550.71,550.71,550.71,550.71,550.71,550.71,550.71,550.71,549.60,549.60,549.60,549.60,549.60,549.60,546.27,546.27,546.27,546.27,546.27,546.27,546.27,542.94,542.94,542.94,542.94,544.05,544.05,447.49,398.66,356.49,340.95,338.73,338.73,338.73,346.50,362.04,362.04,362.04,372.03,385.35,390.89,390.89,408.65,445.27,455.26,455.26,476.35,476.35,484.12,484.12,491.89,499.65,499.65,499.65,501.87,505.20,505.20,505.20,510.75,521.85,521.85,521.85,521.85,521.85,521.85,521.85,526.29,526.29,526.29,526.29,526.29,526.29,526.29,526.29,526.29,526.29,526.29,521.85,521.85,521.85,521.85,521.85,521.85,521.85,521.85,521.85,521.85,521.85,521.85,521.85,521.85,521.85,521.85,521.85,521.85,521.85,521.85,521.85,521.85,521.85,521.85,521.85,526.29,526.29,526.29,526.29,526.29,526.29,526.29,526.29,526.29,526.29,526.29,526.29,526.29,526.29,526.29,526.29,526.29,526.29,526.29,521.85,521.85,521.85,521.85,521.85,521.85,521.85,510.75,510.75,505.20,505.20,505.20,501.87,501.87,499.65,499.65,499.65,499.65,499.65,499.65,499.65,499.65,499.65,501.87,501.87,501.87,501.87,501.87,501.87,501.87,501.87,501.87,501.87,501.87,501.87,501.87,501.87,501.87,501.87,501.87,501.87,501.87,501.87,501.87,501.87,501.87,501.87,499.65,499.65,499.65,499.65,499.65
319.87,318.76,319.87,320.98,318.76,320.98,319.87,319.87,320.98,320.98,320.98,319.87,322.09,320.98,320.98,320.98,322.09,322.09,323.20,323.20,323.20,325.42,327.64,329.85,332.07,333.18,334.29,334.29,334.29,334.29,335.40,336.51,334.29,335.40,336.51,336.51,336.51,335.40,336.51,336.51,336.51,337.62,338.73,337.62,337.62,339.84,339.84,340.95,343.17,344.28,346.50,349.83,352.05,355.38,359.82,363.15,392.00,413.09,428.63,446.38,470.80,487.45,486.34,487.45,486.34,486.34,486.34,486.34,487.45,486.34,487.45,486.34,486.34,486.34,486.34,485.23,486.34,487.45,485.23,485.23,486.34,485.23,486.34,487.45,485.23,485.23,486.34,486.34,485.23,486.34,486.34,487.45,488.56,490.78,491.89,494.11,495.22,497.44,498.55,499.65,500.76,500.76,500.76,501.87,501.87,501.87,501.87,501.87,501.87,502.98,501.87,501.87,502.98,501.87,502.98,501.87,502.98,501.87,502.98,501.87,501.87,502.98,500.76,501.87,500.76,501.87,500.76,501.87,500.76,501.87,500.76,500.76,501.87,500.76,500.76,500.76,501.87,500.76,500.76,501.87,500.76,501.87,500.76,500.76,500.76,500.76,500.76,499.65,500.76,500.76,500.76,500.76,500.76,500.76,493.00,493.00,493.00,493.00,489.67,489.67,489.67,489.67,489.67,489.67,489.67,489.67,489.67,489.67,489.67,489.67,493.00,493.00,493.00,493.00,493.00,493.00,493.00,493.00,489.67,493.00,493.00,489.67,489.67,489.67,489.67,484.12,484.12,484.12,484.12,484.12,489.67,489.67,484.12,489.67,489.67,489.67,500.76,510.75,510.75,524.07,526.29,526.29,531.84,531.84,534.06,536.28,536.28,536.28,536.28,539.61,539.61,539.61,541.83,541.83,541.83,541.83,541.83,541.83,544.05,544.05,544.05,544.05,544.05,544.05,544.05,544.05,544.05,544.05,544.05,544.05,544.05,544.05,544.05,544.05,544.05,544.05,544.05,544.05,544.05,544.05,544.05,550.71,550.71,550.71,550.71,550.71,550.71,550.71,550.71,550.71,550.71,550.71,550.71,550.71,550.71,550.71,550.71,550.71,550.71,550.71,550.71,550.71,549.60,549.60,549.60,549.60,549.60,549.60,546.27,546.27,546.27,546.27,546.27,546.27,546.27,542.94,542.94,542.94,544.05,544.05,473.02,433.07,356.49,339.84,338.73,338.73,338.73,346.50,362.04,362.04,362.04,372.03,385.35,390.89,390.89,408.65,445.27,455.26,455.26,463.03,476.35,484.12,484.12,484.12,491.89,499.65,499.65,501.87,501.87,501.87,505.20,505.20,510.75,510.75,510.75,521.85,521.85,521.85,521.85,521.85,521.85,521.85,521.85,521.85,521.85,521.85,521.85,521.85,521.85,521.85,521.85,521.85,521.85,521.85,521.85,521.85,521.85,521.85,521.85,521.85,521.85,521.85,521.85,521.85,521.85,521.85,521.85,521.85,521.85,521.85,521.85,521.85,521.85,521.85,521.85,521.85,521.85,521.85,521.85,521.85,521.85,521.85,521.85,521.85,526.29,526.29,526.29,526.29,526.29,526.29,526.29,526.29,521.85,521.85,521.85,521.85,521.85,521.85,521.85,521.85,521.85,510.75,510.75,505.20,505.20,505.20,501.87,501.87,499.65,499.65,499.65,499.65,499.65,499.65,499.65,499.65,499.65,501.87,501.87,501.87,501.87,501.87,501.87,501.87,501.87,501.87,501.87,501.87,501.87,501.87,501.87,501.87,501.87,501.87,501.87,501.87,501.87,501.87,501.87,501.87,501.87,501.87,501.87,499.65,499.65,499.65
318.76,319.87,319.87,320.98,319.87,319.87,320.98,320.98,320.98,320.98,320.98,322.09,320.98,322.09,320.98,323.20,320.98,323.20,320.98,323.20,322.09,323.20,325.42,327.64,329.85,329.85,333.18,334.29,334.29,335.40,334.29,334.29,336.51,334.29,335.40,335.40,337.62,336.51,336.51,336.51,337.62,336.51,336.51,338.73,337.62,337.62,339.84,340.95,342.06,344.28,346.50,347.61,350.94,354.27,365.37,401.99,423.08,435.29,461.92,481.90,486.34,486.34,487.45,486.34,487.45,486.34,487.45,486.34,486.34,486.34,486.34,486.34,485.23,486.34,485.23,486.34,485.23,485.23,487.45,485.23,485.23,486.34,485.23,485.23,486.34,486.34,485.23,485.23,486.34,485.23,486.34,486.34,487.45,488.56,489.67,490.78,491.89,494.11,495.22,497.44,498.55,499.65,500.76,500.76,500.76,501.87,501.87,501.87,501.87,501.87,502.98,501.87,502.98,501.87,502.98,501.87,501.87,501.87,501.87,501.87,501.87,501.87,500.76,501.87,500.76,501.87,500.76,501.87,500.76,500.76,501.87,500.76,500.76,500.76,501.87,500.76,500.76,500.76,501.87,500.76,501.87,500.76,501.87,500.76,500.76,500.76,500.76,500.76,500.76,500.76,500.76,500.76,500.76,500.76,493.00,493.00,493.00,493.00,489.67,489.67,489.67,489.67,489.67,489.67,489.67,489.67,489.67,489.67,489.67,489.67,493.00,493.00,493.00,493.00,493.00,493.00,493.00,493.00,489.67,493.00,493.00,489.67,489.67,489.67,489.67,484.12,484.12,484.12,484.12,484.12,484.12,484.12,484.12,484.12,489.67,489.67,500.76,510.75,510.75,524.07,526.29,526.29,528.51,528.51,534.06,536.28,536.28,536.28,536.28,536.28,536.28,539.61,539.61,539.61,541.83,541.83,541.83,541.83,544.05,544.05,544.05,544.05,544.05,544.05,544.05,544.05,544.05,544.05,544.05,544.05,544.05,544.05,544.05,544.05,544.05,544.05,544.05,544.05,544.05,544.05,544.05,544.05,550.71,550.71,550.71,550.71,550.71,550.71,550.71,550.71,550.71,550.71,550.71,550.71,550.71,550.71,550.71,550.71,550.71,550.71,550.71,550.71,549.60,549.60,549.60,549.60,549.60,549.60,546.27,546.27,546.27,546.27,546.27,546.27,542.94,542.94,542.94,542.94,544.05,542.94,478.57,443.05,356.49,339.84,338.73,338.73,338.73,346.50,362.04,362.04,362.04,372.03,377.58,390.89,390.89,408.65,445.27,455.26,455.26,463.03,476.35,484.12,484.12,484.12,491.89,499.65,499.65,501.87,501.87,501.87,505.20,505.20,510.75,510.75,510.75,521.85,521.85,521.85,521.85,521.85,521.85,521.85,521.85,521.85,521.85,521.85,521.85,521.85,521.85,521.85,521.85,521.85,521.85,521.85,521.85,521.85,521.85,521.85,521.85,521.85,521.85,521.85,521.85,521.85,521.85,521.85,521.85,521.85,521.85,521.85,521.85,521.85,521.85,521.85,521.85,521.85,521.85,521.85,521.85,521.85,521.85,521.85,521.85,521.85,521.85,521.85,521.85,521.85,526.29,526.29,526.29,521.85,521.85,521.85,521.85,521.85,521.85,521.85,521.85,521.85,521.85,510.75,510.75,505.20,505.20,505.20,501.87,501.87,499.65,499.65,499.65,499.65,499.65,499.65,499.65,499.65,499.65,499.65,499.65,501.87,501.87,501.87,501.87,501.87,501.87,501.87,501.87,501.87,501.87,501.87,501.87,501.87,501.87,501.87,501.87,501.87,501.87,501.87,501.87,501.87,501.87,501.87,501.87,501.87,499.65,499.65
319.87,319.87,319.87,320.98,319.87,319.87,320.98,319.87,319.87,320.98,320.98,322.09,319.87,322.09,320.98,320.98,320.98,322.09,322.09,323.20,322.09,322.09,323.20,324.31,326.53,328.75,330.96,332.07,334.29,335.40,336.51,335.40,335.40,336.51,336.51,335.40,336.51,336.51,337.62,336.51,336.51,338.73,338.73,337.62,337.62,339.84,338.73,340.95,342.06,343.17,345.39,347.61,359.82,380.91,408.65,423.08,451.93,474.13,487.45,486.34,487.45,486.34,486.34,486.34,486.34,486.34,486.34,486.34,486.34,485.23,486.34,486.34,486.34,487.45,486.34,485.23,486.34,485.23,485.23,486.34,486.34,485.23,485.23,486.34,484.12,485.23,486.34,486.34,485.23,485.23,485.23,485.23,486.34,486.34,487.45,488.56,489.67,490.78,491.89,493.00,495.22,497.44,498.55,499.65,500.76,500.76,501.87,501.87,501.87,501.87,502.98,501.87,501.87,501.87,501.87,501.87,502.98,501.87,502.98,501.87,501.87,500.76,501.87,500.76,501.87,501.87,500.76,501.87,500.76,500.76,501.87,500.76,501.87,500.76,501.87,500.76,501.87,500.76,501.87,500.76,500.76,500.76,500.76,500.76,501.87,500.76,500.76,500.76,500.76,500.76,500.76,500.76,500.76,500.76,493.00,493.00,493.00,493.00,489.67,489.67,489.67,489.67,489.67,489.67,489.67,489.67,489.67,489.67,489.67,493.00,493.00,493.00,493.00,493.00,493.00,493.00,493.00,493.00,493.00,493.00,493.00,493.00,489.67,489.67,489.67,489.67,489.67,484.12,484.12,484.12,484.12,489.67,489.67,489.67,489.67,489.67,500.76,510.75,510.75,524.07,526.29,526.29,528.51,528.51,534.06,536.28,536.28,536.28,536.28,536.28,536.28,539.61,539.61,539.61,539.61,541.83,541.83,541.83,544.05,544.05,544.05,544.05,544.05,544.05,544.05,544.05,544.05,544.05,544.05,544.05,544.05,544.05,544.05,544.05,544.05,544.05,544.05,544.05,544.05,544.05,544.05,544.05,544.05,544.05,544.05,544.05,544.05,544.05,544.05,544.05,544.05,544.05,550.71,550.71,550.71,550.71,550.71,550.71,550.71,550.71,550.71,550.71,550.71,550.71,549.60,549.60,549.60,549.60,549.60,549.60,546.27,546.27,546.27,546.27,542.94,542.94,542.94,542.94,545.16,544.05,494.11,445.27,355.38,340.95,338.73,338.73,338.73,346.50,362.04,362.04,362.04,372.03,377.58,390.89,390.89,408.65,445.27,445.27,445.27,463.03,476.35,476.35,476.35,484.12,491.89,499.65,499.65,499.65,499.65,499.65,501.87,505.20,505.20,505.20,505.20,510.75,510.75,510.75,510.75,521.85,521.85,521.85,521.85,521.85,521.85,521.85,521.85,521.85,521.85,521.85,521.85,521.85,521.85,521.85,521.85,521.85,521.85,521.85,521.85,521.85,521.85,521.85,521.85,521.85,521.85,521.85,521.85,521.85,521.85,521.85,521.85,521.85,521.85,521.85,521.85,521.85,521.85,521.85,521.85,521.85,521.85,521.85,521.85,521.85,521.85,521.85,521.85,521.85,521.85,521.85,521.85,521.85,521.85,521.85,521.85,521.85,521.85,521.85,521.85,521.85,510.75,510.75,510.75,505.20,501.87,501.87,501.87,499.65,499.65,499.65,499.65,499.65,499.65,499.65,499.65,499.65,499.65,499.65,499.65,499.65,499.65,499.65,499.65,499.65,499.65,499.65,499.65,499.65,499.65,499.65,499.65,499.65,499.65,499.65,499.65,499.65,499.65,499.65,501.87,501.87,501.87,501.87,501.87,501.87,499.65,499.65
318.76,319.87,318.76,319.87,320.98,319.87,319.87,320.98,320.98,322.09,319.87,320.98,322.09,320.98,322.09,320.98,323.20,320.98,323.20,320.98,323.20,322.09,323.20,323.20,324.31,326.53,328.75,330.96,333.18,334.29,334.29,336.51,335.40,334.29,336.51,336.51,337.62,335.40,336.51,337.62,337.62,336.51,337.62,338.73,338.73,337.62,339.84,339.84,342.06,343.17,345.39,355.38,396.44,414.20,435.29,463.03,486.34,487.45,486.34,486.34,486.34,486.34,487.45,486.34,486.34,487.45,486.34,486.34,485.23,486.34,485.23,485.23,486.34,485.23,485.23,486.34,485.23,485.23,486.34,485.23,485.23,486.34,486.34,484.12,486.34,486.34,485.23,485.23,485.23,484.12,485.23,485.23,485.23,485.23,486.34,486.34,487.45,488.56,489.67,490.78,491.89,493.00,495.22,497.44,498.55,499.65,500.76,500.76,500.76,501.87,501.87,501.87,501.87,501.87,501.87,501.87,501.87,501.87,500.76,501.87,501.87,500.76,501.87,501.87,500.76,500.76,500.76,500.76,500.76,501.87,500.76,501.87,500.76,500.76,500.76,500.76,500.76,500.76,500.76,500.76,500.76,500.76,500.76,501.87,499.65,500.76,500.76,500.76,500.76,500.76,500.76,500.76,500.76,500.76,493.00,493.00,493.00,493.00,493.00,493.00,489.67,489.67,489.67,489.67,489.67,489.67,489.67,493.00,493.00,493.00,493.00,493.00,493.00,500.76,500.76,493.00,493.00,500.76,500.76,500.76,500.76,493.00,489.67,489.67,489.67,489.67,489.67,484.12,484.12,484.12,484.12,489.67,489.67,489.67,489.67,489.67,500.76,500.76,506.31,517.41,524.07,525.18,528.51,528.51,534.06,534.06,536.28,536.28,536.28,536.28,536.28,539.61,539.61,539.61,539.61,541.83,541.83,541.83,544.05,544.05,544.05,544.05,544.05,544.05,544.05,544.05,544.05,544.05,544.05,544.05,544.05,544.05,544.05,544.05,544.05,544.05,544.05,544.05,544.05,544.05,544.05,544.05,544.05,544.05,544.05,544.05,544.05,544.05,544.05,544.05,544.05,544.05,550.71,550.71,550.71,550.71,550.71,550.71,550.71,550.71,550.71,550.71,550.71,550.71,549.60,549.60,549.60,549.60,549.60,549.60,546.27,546.27,546.27,546.27,546.27,546.27,546.27,546.27,545.16,545.16,497.44,441.95,353.16,340.95,338.73,338.73,338.73,346.50,362.04,367.59,367.59,372.03,377.58,390.89,390.89,398.66,419.75,445.27,445.27,455.26,463.03,476.35,476.35,476.35,484.12,484.12,491.89,491.89,499.65,499.65,499.65,501.87,501.87,501.87,505.20,505.20,505.20,505.20,505.20,505.20,505.20,510.75,510.75,510.75,510.75,510.75,510.75,510.75,510.75,510.75,510.75,510.75,510.75,510.75,510.75,510.75,510.75,510.75,510.75,510.75,510.75,510.75,521.85,521.85,521.85,521.85,521.85,521.85,521.85,521.85,521.85,521.85,521.85,521.85,521.85,521.85,521.85,521.85,521.85,521.85,521.85,521.85,521.85,521.85,521.85,521.85,521.85,521.85,521.85,521.85,521.85,521.85,521.85,521.85,521.85,521.85,521.85,521.85,521.85,521.85,510.75,510.75,510.75,505.20,501.87,501.87,501.87,499.65,499.65,499.65,499.65,499.65,499.65,499.65,499.65,499.65,499.65,499.65,499.65,499.65,499.65,499.65,499.65,499.65,499.65,499.65,499.65,499.65,499.65,499.65,499.65,499.65,499.65,499.65,499.65,499.65,499.65,499.65,499.65,499.65,499.65,501.87,501.87,501.87,501.87,501.87
318.76,319.87,319.87,319.87,320.98,319.87,320.98,320.98,319.87,319.87,322.09,319.87,322.09,319.87,322.09,320.98,320.98,320.98,322.09,322.09,323.20,322.09,322.09,323.20,322.09,324.31,325.42,328.75,329.85,333.18,333.18,335.40,334.29,336.51,335.40,334.29,336.51,337.62,336.51,336.51,336.51,337.62,337.62,337.62,337.62,339.84,338.73,339.84,342.06,343.17,374.25,403.10,417.53,449.71,480.79,487.45,486.34,487.45,486.34,487.45,486.34,487.45,486.34,486.34,487.45,485.23,486.34,485.23,486.34,485.23,486.34,485.23,485.23,487.45,486.34,485.23,485.23,486.34,485.23,485.23,486.34,485.23,484.12,486.34,484.12,485.23,486.34,484.12,485.23,485.23,485.23,485.23,485.23,485.23,485.23,485.23,485.23,486.34,486.34,487.45,488.56,489.67,491.89,493.00,495.22,497.44,499.65,500.76,500.76,500.76,500.76,501.87,501.87,501.87,501.87,501.87,501.87,501.87,501.87,501.87,500.76,501.87,500.76,501.87,500.76,501.87,500.76,501.87,500.76,501.87,500.76,500.76,500.76,500.76,500.76,501.87,500.76,501.87,500.76,500.76,501.87,500.76,500.76,500.76,500.76,500.76,500.76,500.76,500.76,500.76,500.76,500.76,500.76,500.76,493.00,493.00,493.00,493.00,493.00,493.00,489.67,489.67,489.67,489.67,489.67,489.67,489.67,493.00,493.00,493.00,493.00,493.00,493.00,500.76,500.76,493.00,493.00,500.76,500.76,500.76,500.76,493.00,489.67,489.67,489.67,489.67,489.67,484.12,484.12,484.12,484.12,489.67,489.67,489.67,489.67,489.67,500.76,500.76,506.31,512.97,519.63,525.18,528.51,528.51,534.06,534.06,534.06,536.28,536.28,536.28,536.28,539.61,539.61,539.61,539.61,541.83,541.83,541.83,544.05,544.05,544.05,544.05,544.05,544.05,544.05,544.05,544.05,544.05,544.05,544.05,544.05,544.05,544.05,544.05,544.05,544.05,544.05,544.05,544.05,544.05,544.05,544.05,544.05,544.05,544.05,544.05,544.05,544.05,544.05,544.05,544.05,544.05,550.71,550.71,550.71,550.71,550.71,550.71,550.71,550.71,550.71,550.71,550.71,550.71,549.60,549.60,549.60,549.60,549.60,549.60,546.27,546.27,546.27,546.27,546.27,546.27,546.27,542.94,542.94,544.05,505.20,441.95,390.89,343.17,343.17,346.50,346.50,346.50,362.04,367.59,367.59,372.03,377.58,390.89,390.89,398.66,419.75,445.27,445.27,455.26,463.03,476.35,476.35,476.35,484.12,484.12,491.89,491.89,499.65,499.65,499.65,501.87,501.87,501.87,505.20,505.20,505.20,505.20,505.20,501.87,501.87,501.87,501.87,501.87,501.87,505.20,505.20,505.20,505.20,505.20,505.20,501.87,501.87,501.87,505.20,505.20,505.20,505.20,505.20,505.20,505.20,505.20,510.75,510.75,510.75,510.75,510.75,521.85,521.85,521.85,521.85,521.85,521.85,521.85,521.85,521.85,521.85,521.85,521.85,521.85,521.85,521.85,521.85,521.85,521.85,521.85,521.85,521.85,521.85,521.85,521.85,521.85,521.85,521.85,521.85,521.85,521.85,521.85,521.85,521.85,510.75,505.20,505.20,505.20,501.87,501.87,501.87,499.65,499.65,499.65,499.65,499.65,499.65,499.65,499.65,499.65,499.65,499.65,499.65,499.65,499.65,499.65,499.65,499.65,499.65,499.65,499.65,499.65,499.65,499.65,499.65,499.65,499.65,499.65,499.65,499.65,499.65,499.65,499.65,499.65,499.65,501.87,501.87,501.87,501.87,501.87
319.87,319.87,319.87,318.76,319.87,319.87,319.87,320.98,320.98,319.87,320.98,319.87,320.98,322.09,320.98,322.09,320.98,323.20,320.98,323.20,320.98,323.20,320.98,323.20,322.09,324.31,324.31,325.42,328.75,330.96,332.07,335.40,335.40,334.29,337.62,337.62,335.40,336.51,337.62,337.62,336.51,337.62,338.73,338.73,339.84,337.62,339.84,340.95,348.72,389.78,409.76,428.63,461.92,486.34,486.34,487.45,486.34,487.45,486.34,486.34,487.45,486.34,486.34,487.45,485.23,486.34,486.34,486.34,485.23,486.34,485.23,486.34,486.34,485.23,485.23,486.34,485.23,485.23,485.23,485.23,485.23,486.34,486.34,484.12,486.34,484.12,485.23,486.34,485.23,484.12,484.12,484.12,484.12,484.12,485.23,484.12,485.23,485.23,485.23,486.34,486.34,487.45,488.56,489.67,491.89,493.00,495.22,497.44,498.55,500.76,500.76,500.76,500.76,501.87,500.76,501.87,500.76,501.87,500.76,501.87,500.76,501.87,500.76,500.76,501.87,500.76,500.76,501.87,500.76,500.76,501.87,500.76,501.87,500.76,501.87,499.65,500.76,499.65,500.76,499.65,499.65,500.76,499.65,500.76,499.65,500.76,500.76,500.76,500.76,500.76,500.76,500.76,500.76,500.76,493.00,493.00,493.00,493.00,493.00,493.00,489.67,489.67,489.67,489.67,489.67,489.67,489.67,493.00,493.00,493.00,493.00,493.00,500.76,500.76,500.76,500.76,500.76,500.76,500.76,500.76,500.76,493.00,493.00,493.00,489.67,489.67,489.67,484.12,484.12,484.12,484.12,489.67,489.67,489.67,489.67,489.67,500.76,500.76,502.98,512.97,519.63,522.96,527.40,530.73,531.84,534.06,534.06,534.06,536.28,536.28,536.28,539.61,539.61,539.61,539.61,541.83,541.83,541.83,544.05,544.05,544.05,544.05,544.05,544.05,544.05,544.05,544.05,544.05,544.05,544.05,544.05,544.05,544.05,544.05,544.05,544.05,544.05,544.05,544.05,544.05,544.05,544.05,544.05,544.05,544.05,544.05,544.05,544.05,544.05,544.05,544.05,544.05,544.05,544.05,544.05,544.05,544.05,550.71,550.71,550.71,550.71,550.71,550.71,550.71,550.71,549.60,549.60,549.60,549.60,549.60,546.27,546.27,546.27,546.27,546.27,546.27,546.27,542.94,542.94,544.05,519.63,447.49,401.99,345.39,346.50,346.50,346.50,346.50,362.04,367.59,367.59,372.03,377.58,385.35,385.35,398.66,408.65,445.27,445.27,445.27,455.26,463.03,463.03,476.35,476.35,476.35,484.12,491.89,491.89,491.89,499.65,499.65,499.65,499.65,499.65,501.87,501.87,501.87,501.87,501.87,501.87,501.87,501.87,501.87,501.87,505.20,505.20,505.20,505.20,505.20,505.20,501.87,501.87,501.87,505.20,505.20,505.20,505.20,505.20,505.20,505.20,505.20,510.75,510.75,510.75,510.75,510.75,521.85,521.85,521.85,521.85,521.85,521.85,521.85,521.85,521.85,510.75,510.75,510.75,510.75,510.75,510.75,521.85,521.85,521.85,521.85,521.85,521.85,521.85,521.85,521.85,521.85,521.85,521.85,521.85,521.85,521.85,521.85,510.75,510.75,510.75,505.20,505.20,501.87,501.87,501.87,499.65,499.65,499.65,499.65,491.89,491.89,491.89,491.89,491.89,491.89,491.89,491.89,491.89,491.89,491.89,491.89,491.89,491.89,491.89,491.89,491.89,491.89,491.89,491.89,491.89,491.89,491.89,491.89,491.89,491.89,491.89,499.65,499.65,499.65,499.65,499.65,499.65,499.65,499.65,499.65
319.87,318.76,319.87,319.87,318.76,319.87,319.87,319.87,320.98,319.87,320.98,320.98,320.98,322.09,319.87,322.09,320.98,320.98,322.09,320.98,322.09,322.09,322.09,323.20,322.09,322.09,324.31,323.20,325.42,327.64,329.85,330.96,333.18,335.40,335.40,335.40,337.62,337.62,336.51,337.62,337.62,337.62,337.62,337.62,337.62,339.84,338.73,347.61,389.78,410.87,445.27,470.80,486.34,486.34,488.56,486.34,487.45,486.34,487.45,486.34,486.34,486.34,487.45,485.23,487.45,485.23,486.34,485.23,486.34,485.23,487.45,485.23,485.23,486.34,485.23,485.23,486.34,485.23,486.34,485.23,486.34,485.23,484.12,486.34,484.12,485.23,486.34,484.12,484.12,485.23,485.23,485.23,484.12,485.23,483.01,485.23,484.12,484.12,484.12,485.23,484.12,485.23,486.34,486.34,488.56,489.67,490.78,493.00,495.22,497.44,499.65,500.76,500.76,500.76,500.76,501.87,500.76,501.87,500.76,501.87,500.76,500.76,501.87,500.76,501.87,500.76,501.87,500.76,501.87,500.76,501.87,500.76,500.76,500.76,500.76,499.65,500.76,500.76,499.65,500.76,499.65,500.76,499.65,500.76,500.76,500.76,500.76,500.76,500.76,500.76,500.76,500.76,500.76,500.76,493.00,493.00,493.00,493.00,493.00,493.00,489.67,489.67,489.67,493.00,493.00,493.00,493.00,493.00,493.00,493.00,500.76,500.76,500.76,500.76,500.76,500.76,500.76,500.76,500.76,500.76,500.76,493.00,493.00,493.00,489.67,489.67,489.67,484.12,484.12,484.12,484.12,484.12,484.12,489.67,489.67,489.67,500.76,500.76,501.87,510.75,518.52,524.07,527.40,528.51,531.84,534.06,534.06,534.06,536.28,536.28,536.28,539.61,539.61,539.61,539.61,541.83,541.83,541.83,544.05,544.05,544.05,544.05,544.05,544.05,544.05,544.05,544.05,544.05,544.05,544.05,544.05,544.05,544.05,544.05,544.05,544.05,544.05,544.05,544.05,544.05,544.05,544.05,544.05,544.05,544.05,544.05,544.05,544.05,544.05,544.05,544.05,544.05,544.05,544.05,544.05,544.05,544.05,544.05,544.05,544.05,550.71,550.71,550.71,550.71,550.71,550.71,550.71,549.60,549.60,549.60,549.60,546.27,546.27,546.27,546.27,546.27,546.27,542.94,542.94,544.05,529.62,469.69,433.07,363.15,355.38,362.04,346.50,346.50,362.04,367.59,367.59,372.03,377.58,385.35,385.35,390.89,408.65,419.75,419.75,445.27,445.27,455.26,455.26,463.03,476.35,476.35,476.35,484.12,484.12,484.12,491.89,491.89,491.89,491.89,491.89,491.89,491.89,499.65,499.65,499.65,499.65,499.65,499.65,499.65,499.65,499.65,499.65,499.65,499.65,499.65,499.65,499.65,499.65,499.65,499.65,499.65,499.65,501.87,501.87,501.87,501.87,501.87,505.20,505.20,505.20,505.20,505.20,510.75,510.75,510.75,510.75,510.75,510.75,510.75,510.75,510.75,510.75,510.75,510.75,510.75,510.75,510.75,521.85,521.85,521.85,521.85,521.85,521.85,521.85,521.85,521.85,521.85,521.85,521.85,521.85,521.85,521.85,521.85,510.75,510.75,510.75,505.20,505.20,501.87,501.87,501.87,499.65,499.65,499.65,499.65,491.89,491.89,491.89,484.12,484.12,484.12,484.12,484.12,484.12,484.12,484.12,484.12,484.12,484.12,484.12,484.12,484.12,484.12,484.12,484.12,484.12,484.12,484.12,484.12,484.12,491.89,491.89,491.89,499.65,499.65,499.65,499.65,499.65,499.65,499.65,499.65
318.76,319.87,318.76,319.87,318.76,319.87,319.87,319.87,320.98,320.98,319.87,320.98,319.87,320.98,322.09,320.98,322.09,322.09,322.09,322.09,320.98,320.98,323.20,320.98,323.20,322.09,323.20,323.20,324.31,324.31,327.64,329.85,332.07,334.29,335.40,336.51,335.40,336.51,337.62,336.51,337.62,337.62,338.73,338.73,338.73,339.84,368.70,403.10,417.53,454.15,487.45,487.45,486.34,488.56,486.34,487.45,486.34,487.45,486.34,486.34,487.45,486.34,486.34,486.34,485.23,487.45,485.23,487.45,485.23,486.34,485.23,485.23,486.34,485.23,485.23,486.34,485.23,486.34,484.12,485.23,484.12,486.34,484.12,485.23,486.34,485.23,484.12,486.34,484.12,484.12,484.12,484.12,484.12,484.12,484.12,483.01,484.12,484.12,484.12,484.12,484.12,484.12,485.23,485.23,486.34,486.34,488.56,489.67,490.78,493.00,495.22,497.44,499.65,500.76,500.76,500.76,500.76,500.76,500.76,501.87,500.76,501.87,500.76,501.87,500.76,501.87,500.76,500.76,500.76,500.76,500.76,500.76,500.76,500.76,499.65,500.76,499.65,500.76,499.65,500.76,499.65,500.76,499.65,500.76,499.65,500.76,500.76,500.76,500.76,500.76,500.76,493.00,500.76,500.76,493.00,493.00,493.00,493.00,493.00,493.00,489.67,489.67,489.67,493.00,493.00,493.00,493.00,493.00,493.00,493.00,500.76,500.76,500.76,500.76,500.76,500.76,500.76,500.76,500.76,500.76,500.76,493.00,493.00,493.00,489.67,489.67,489.67,489.67,484.12,484.12,484.12,484.12,484.12,489.67,489.67,489.67,493.00,493.00,505.20,518.52,520.74,520.74,520.74,528.51,531.84,534.06,534.06,534.06,536.28,536.28,536.28,539.61,539.61,539.61,541.83,541.83,541.83,541.83,544.05,544.05,544.05,544.05,544.05,544.05,544.05,544.05,544.05,544.05,544.05,544.05,544.05,544.05,544.05,544.05,544.05,544.05,544.05,544.05,544.05,544.05,544.05,544.05,544.05,544.05,544.05,544.05,544.05,544.05,544.05,544.05,544.05,544.05,544.05,544.05,544.05,544.05,544.05,544.05,544.05,544.05,550.71,550.71,550.71,550.71,550.71,550.71,550.71,550.71,549.60,549.60,549.60,546.27,546.27,546.27,546.27,546.27,546.27,542.94,542.94,542.94,539.61,498.55,447.49,390.89,359.82,362.04,362.04,362.04,362.04,367.59,367.59,372.03,377.58,385.35,385.35,390.89,408.65,419.75,419.75,445.27,445.27,455.26,455.26,463.03,476.35,463.03,463.03,476.35,476.35,476.35,484.12,484.12,484.12,484.12,484.12,484.12,491.89,491.89,491.89,491.89,491.89,491.89,491.89,491.89,491.89,491.89,491.89,491.89,491.89,491.89,491.89,499.65,491.89,491.89,499.65,499.65,499.65,499.65,499.65,499.65,499.65,499.65,501.87,501.87,501.87,501.87,501.87,501.87,501.87,501.87,501.87,501.87,501.87,501.87,501.87,501.87,501.87,505.20,505.20,505.20,505.20,505.20,510.75,510.75,510.75,521.85,521.85,521.85,521.85,521.85,521.85,521.85,521.85,521.85,521.85,521.85,521.85,510.75,510.75,510.75,505.20,505.20,505.20,501.87,499.65,499.65,499.65,499.65,499.65,491.89,491.89,491.89,491.89,484.12,484.12,484.12,484.12,484.12,484.12,484.12,484.12,484.12,484.12,484.12,484.12,484.12,484.12,484.12,484.12,484.12,484.12,484.12,484.12,484.12,484.12,491.89,491.89,491.89,499.65,499.65,499.65,499.65,499.65,499.65,499.65,499.65
318.76,319.87,318.76,318.76,319.87,319.87,319.87,320.98,319.87,320.98,319.87,319.87,322.09,319.87,322.09,320.98,320.98,322.09,320.98,322.09,322.09,322.09,322.09,322.09,323.20,323.20,323.20,323.20,323.20,324.31,324.31,327.64,329.85,332.07,334.29,334.29,337.62,336.51,336.51,338.73,336.51,338.73,337.62,337.62,347.61,389.78,407.54,427.52,461.92,487.45,486.34,488.56,486.34,486.34,486.34,487.45,486.34,487.45,486.34,487.45,485.23,486.34,487.45,486.34,487.45,485.23,486.34,485.23,485.23,486.34,485.23,486.34,485.23,485.23,486.34,485.23,486.34,485.23,486.34,485.23,486.34,484.12,486.34,485.23,484.12,484.12,485.23,484.12,485.23,484.12,484.12,485.23,483.01,484.12,484.12,483.01,484.12,483.01,483.01,483.01,483.01,484.12,484.12,484.12,484.12,484.12,485.23,486.34,488.56,489.67,490.78,493.00,495.22,498.55,499.65,499.65,500.76,500.76,500.76,500.76,500.76,500.76,500.76,500.76,500.76,500.76,500.76,501.87,499.65,500.76,500.76,499.65,500.76,499.65,500.76,498.55,499.65,500.76,498.55,499.65,498.55,499.65,498.55,498.55,499.65,500.76,500.76,500.76,500.76,500.76,500.76,493.00,500.76,500.76,493.00,493.00,493.00,493.00,493.00,493.00,493.00,493.00,493.00,493.00,493.00,493.00,493.00,500.76,500.76,500.76,500.76,500.76,500.76,500.76,500.76,500.76,500.76,500.76,500.76,500.76,500.76,493.00,493.00,493.00,489.67,489.67,489.67,489.67,484.12,484.12,484.12,484.12,484.12,484.12,489.67,489.67,493.00,493.00,504.09,510.75,520.74,520.74,520.74,528.51,531.84,534.06,534.06,534.06,536.28,536.28,536.28,539.61,539.61,539.61,541.83,541.83,541.83,541.83,544.05,544.05,544.05,544.05,544.05,544.05,544.05,544.05,544.05,544.05,544.05,544.05,544.05,544.05,544.05,544.05,544.05,544.05,544.05,544.05,544.05,544.05,544.05,544.05,550.71,550.71,550.71,544.05,544.05,544.05,544.05,544.05,544.05,544.05,544.05,544.05,544.05,544.05,544.05,544.05,544.05,544.05,544.05,550.71,550.71,550.71,550.71,550.71,550.71,550.71,549.60,549.60,549.60,546.27,546.27,546.27,546.27,546.27,546.27,542.94,542.94,539.61,537.39,531.84,465.25,405.32,360.93,362.04,362.04,362.04,362.04,362.04,362.04,367.59,372.03,377.58,377.58,385.35,398.66,419.75,419.75,445.27,445.27,445.27,445.27,455.26,463.03,463.03,463.03,476.35,476.35,476.35,484.12,484.12,484.12,484.12,484.12,484.12,491.89,491.89,491.89,491.89,491.89,491.89,491.89,491.89,491.89,491.89,491.89,491.89,491.89,491.89,491.89,499.65,491.89,491.89,499.65,499.65,499.65,499.65,499.65,499.65,499.65,499.65,499.65,499.65,499.65,499.65,499.65,499.65,499.65,499.65,499.65,499.65,499.65,499.65,499.65,499.65,499.65,499.65,501.87,501.87,501.87,505.20,505.20,505.20,510.75,510.75,510.75,521.85,521.85,521.85,521.85,521.85,521.85,521.85,521.85,521.85,521.85,510.75,510.75,510.75,505.20,501.87,501.87,499.65,499.65,499.65,499.65,491.89,491.89,491.89,484.12,484.12,484.12,476.35,476.35,476.35,476.35,476.35,476.35,476.35,476.35,476.35,476.35,476.35,476.35,476.35,476.35,476.35,476.35,476.35,476.35,476.35,476.35,476.35,484.12,484.12,484.12,491.89,491.89,491.89,491.89,499.65,499.65,499.65,499.65,499.65
318.76,318.76,319.87,318.76,319.87,319.87,319.87,320.98,319.87,319.87,322.09,320.98,322.09,320.98,320.98,322.09,320.98,320.98,322.09,320.98,322.09,322.09,322.09,323.20,322.09,323.20,322.09,324.31,323.20,324.31,324.31,325.42,326.53,329.85,330.96,334.29,334.29,336.51,337.62,336.51,337.62,337.62,338.73,366.48,390.89,410.87,447.49,471.91,488.56,486.34,487.45,486.34,487.45,487.45,486.34,486.34,487.45,486.34,486.34,486.34,486.34,487.45,485.23,485.23,485.23,486.34,485.23,485.23,486.34,484.12,485.23,485.23,485.23,486.34,485.23,486.34,485.23,486.34,485.23,484.12,485.23,484.12,485.23,484.12,485.23,484.12,485.23,484.12,484.12,484.12,485.23,483.01,485.23,483.01,484.12,483.01,484.12,483.01,484.12,483.01,483.01,483.01,483.01,483.01,483.01,484.12,484.12,484.12,485.23,486.34,487.45,488.56,490.78,493.00,497.44,498.55,498.55,499.65,499.65,500.76,500.76,500.76,500.76,500.76,501.87,500.76,500.76,500.76,499.65,500.76,499.65,500.76,500.76,499.65,499.65,500.76,499.65,500.76,498.55,500.76,498.55,499.65,498.55,500.76,498.55,499.65,500.76,500.76,500.76,500.76,493.00,496.33,493.00,493.00,493.00,493.00,493.00,493.00,493.00,493.00,493.00,493.00,493.00,493.00,493.00,500.76,500.76,500.76,500.76,500.76,500.76,500.76,500.76,500.76,500.76,500.76,500.76,500.76,500.76,500.76,500.76,493.00,493.00,493.00,489.67,489.67,489.67,489.67,484.12,484.12,484.12,484.12,484.12,484.12,489.67,489.67,493.00,500.76,500.76,510.75,520.74,520.74,520.74,525.18,531.84,534.06,534.06,534.06,536.28,536.28,536.28,539.61,539.61,539.61,541.83,541.83,541.83,541.83,544.05,544.05,544.05,544.05,544.05,544.05,544.05,544.05,544.05,544.05,544.05,544.05,544.05,544.05,544.05,544.05,544.05,544.05,544.05,544.05,544.05,544.05,544.05,544.05,550.71,550.71,550.71,544.05,544.05,544.05,544.05,544.05,544.05,544.05,544.05,544.05,544.05,544.05,544.05,544.05,544.05,544.05,550.71,550.71,550.71,550.71,550.71,550.71,550.71,550.71,549.60,549.60,549.60,549.60,546.27,546.27,546.27,546.27,546.27,542.94,532.95,532.95,532.95,535.17,477.46,429.74,366.48,362.04,362.04,362.04,362.04,362.04,362.04,367.59,372.03,377.58,377.58,385.35,390.89,390.89,408.65,419.75,445.27,445.27,445.27,445.27,455.26,455.26,455.26,463.03,463.03,463.03,476.35,476.35,476.35,476.35,476.35,476.35,476.35,476.35,476.35,476.35,476.35,476.35,476.35,476.35,484.12,484.12,484.12,484.12,484.12,484.12,484.12,484.12,484.12,484.12,484.12,484.12,491.89,491.89,491.89,491.89,491.89,491.89,491.89,499.65,499.65,499.65,499.65,499.65,499.65,499.65,499.65,499.65,499.65,499.65,499.65,499.65,499.65,499.65,501.87,501.87,501.87,505.20,505.20,505.20,510.75,510.75,510.75,521.85,521.85,521.85,521.85,521.85,521.85,521.85,521.85,521.85,521.85,510.75,505.20,505.20,501.87,501.87,501.87,499.65,499.65,499.65,491.89,491.89,491.89,484.12,476.35,476.35,476.35,476.35,463.03,463.03,463.03,463.03,463.03,463.03,455.26,455.26,455.26,455.26,455.26,455.26,455.26,455.26,455.26,455.26,463.03,463.03,463.03,463.03,476.35,476.35,476.35,484.12,484.12,484.12,484.12,491.89,491.89,491.89,491.89,491.89
319.87,318.76,318.76,320.98,318.76,320.98,318.76,320.98,319.87,319.87,320.98,319.87,320.98,322.09,319.87,320.98,322.09,320.98,322.09,320.98,322.09,322.09,322.09,323.20,322.09,323.20,323.20,322.09,324.31,323.20,323.20,324.31,325.42,326.53,328.75,330.96,333.18,335.40,336.51,336.51,338.73,347.61,369.81,407.54,420.86,464.14,487.45,488.56,486.34,486.34,487.45,487.45,488.56,486.34,487.45,486.34,486.34,486.34,487.45,486.34,487.45,486.34,486.34,487.45,486.34,485.23,485.23,486.34,484.12,486.34,485.23,485.23,486.34,485.23,486.34,485.23,486.34,485.23,485.23,486.34,484.12,486.34,485.23,485.23,484.12,485.23,485.23,485.23,484.12,485.23,483.01,484.12,483.01,484.12,484.12,483.01,483.01,483.01,483.01,483.01,483.01,483.01,483.01,484.12,483.01,483.01,483.01,483.01,484.12,484.12,484.12,486.34,487.45,488.56,489.67,494.11,496.33,497.44,498.55,499.65,499.65,499.65,500.76,499.65,500.76,499.65,500.76,499.65,500.76,499.65,499.65,500.76,498.55,499.65,500.76,498.55,499.65,498.55,498.55,498.55,498.55,498.55,498.55,498.55,497.44,497.44,493.00,493.00,493.00,493.00,495.22,495.22,494.11,493.00,493.00,493.00,493.00,493.00,493.00,493.00,493.00,493.00,493.00,493.00,493.00,500.76,500.76,500.76,500.76,500.76,500.76,500.76,500.76,500.76,500.76,500.76,500.76,500.76,500.76,500.76,500.76,493.00,493.00,493.00,489.67,489.67,489.67,489.67,489.67,489.67,484.12,484.12,484.12,489.67,489.67,489.67,489.67,500.76,500.76,500.76,500.76,512.97,520.74,525.18,530.73,531.84,532.95,534.06,536.28,536.28,536.28,539.61,539.61,539.61,539.61,541.83,541.83,541.83,544.05,544.05,544.05,544.05,544.05,544.05,544.05,544.05,544.05,544.05,544.05,544.05,544.05,544.05,544.05,544.05,544.05,544.05,544.05,544.05,544.05,544.05,544.05,544.05,550.71,550.71,550.71,544.05,544.05,544.05,544.05,544.05,544.05,544.05,544.05,544.05,544.05,544.05,544.05,544.05,544.05,544.05,550.71,550.71,550.71,550.71,550.71,550.71,550.71,550.71,549.60,549.60,549.60,549.60,549.60,549.60,546.27,546.27,546.27,542.94,532.95,532.95,532.95,534.06,499.65,434.18,398.66,362.04,360.93,362.04,362.04,362.04,362.04,367.59,372.03,372.03,372.03,377.58,385.35,385.35,398.66,408.65,419.75,419.75,419.75,445.27,445.27,445.27,445.27,455.26,455.26,455.26,455.26,455.26,455.26,455.26,455.26,455.26,463.03,463.03,463.03,463.03,463.03,463.03,463.03,463.03,463.03,463.03,476.35,476.35,476.35,476.35,476.35,476.35,476.35,476.35,476.35,476.35,484.12,484.12,484.12,484.12,484.12,484.12,484.12,484.12,484.12,491.89,491.89,491.89,491.89,491.89,491.89,491.89,491.89,491.89,491.89,491.89,491.89,491.89,499.65,499.65,499.65,501.87,501.87,501.87,505.20,510.75,510.75,510.75,521.85,521.85,521.85,521.85,521.85,521.85,521.85,521.85,510.75,510.75,505.20,505.20,501.87,501.87,501.87,499.65,499.65,499.65,491.89,491.89,491.89,484.12,476.35,476.35,476.35,476.35,463.03,463.03,463.03,463.03,463.03,463.03,455.26,455.26,455.26,455.26,455.26,455.26,455.26,455.26,455.26,455.26,463.03,463.03,463.03,463.03,476.35,476.35,476.35,476.35,476.35,476.35,484.12,484.12,484.12,484.12,491.89,491.89
319.87,318.76,319.87,318.76,319.87,319.87,319.87,319.87,320.98,319.87,320.98,320.98,322.09,319.87,322.09,320.98,322.09,320.98,322.09,322.09,322.09,322.09,322.09,323.20,323.20,322.09,323.20,323.20,322.09,324.31,322.09,325.42,324.31,325.42,326.53,328.75,330.96,333.18,335.40,336.51,345.39,389.78,407.54,430.85,473.02,487.45,488.56,486.34,487.45,488.56,487.45,486.34,486.34,487.45,486.34,487.45,486.34,487.45,486.34,486.34,485.23,486.34,486.34,485.23,485.23,486.34,485.23,485.23,485.23,485.23,485.23,486.34,485.23,485.23,485.23,486.34,485.23,486.34,485.23,484.12,485.23,484.12,484.12,485.23,485.23,484.12,484.12,484.12,485.23,484.12,484.12,484.12,484.12,483.01,483.01,485.23,483.01,483.01,483.01,484.12,483.01,483.01,483.01,481.90,483.01,483.01,483.01,483.01,483.01,483.01,483.01,484.12,484.12,485.23,487.45,487.45,489.67,493.00,495.22,497.44,498.55,498.55,498.55,499.65,499.65,500.76,499.65,500.76,499.65,499.65,500.76,498.55,499.65,500.76,498.55,499.65,498.55,498.55,498.55,498.55,498.55,497.44,497.44,496.33,495.22,494.11,493.00,493.00,493.00,493.00,494.11,495.22,494.11,493.00,493.00,493.00,500.76,500.76,500.76,500.76,500.76,500.76,500.76,500.76,500.76,500.76,500.76,500.76,500.76,500.76,500.76,500.76,500.76,500.76,500.76,500.76,500.76,500.76,500.76,500.76,500.76,493.00,493.00,493.00,489.67,489.67,489.67,489.67,489.67,489.67,484.12,484.12,484.12,489.67,489.67,489.67,489.67,493.00,493.00,500.76,500.76,507.42,518.52,522.96,530.73,531.84,531.84,534.06,536.28,536.28,536.28,536.28,539.61,539.61,539.61,541.83,541.83,541.83,544.05,544.05,544.05,544.05,544.05,544.05,544.05,544.05,544.05,544.05,544.05,544.05,544.05,544.05,544.05,544.05,544.05,544.05,544.05,544.05,544.05,544.05,544.05,544.05,544.05,550.71,550.71,544.05,544.05,544.05,544.05,544.05,544.05,544.05,544.05,544.05,544.05,544.05,544.05,550.71,550.71,550.71,550.71,550.71,550.71,550.71,550.71,550.71,550.71,550.71,549.60,549.60,549.60,549.60,549.60,549.60,546.27,546.27,546.27,542.94,532.95,532.95,532.95,534.06,514.08,439.73,401.99,362.04,363.15,362.04,362.04,362.04,362.04,362.04,367.59,367.59,372.03,377.58,385.35,385.35,398.66,408.65,419.75,419.75,419.75,445.27,445.27,445.27,445.27,455.26,455.26,455.26,455.26,455.26,455.26,455.26,455.26,455.26,463.03,463.03,463.03,463.03,463.03,463.03,463.03,463.03,463.03,463.03,476.35,476.35,476.35,463.03,463.03,463.03,463.03,463.03,463.03,463.03,476.35,476.35,476.35,476.35,476.35,476.35,476.35,476.35,476.35,476.35,476.35,476.35,476.35,476.35,476.35,476.35,476.35,476.35,476.35,476.35,476.35,484.12,484.12,484.12,491.89,499.65,499.65,499.65,501.87,505.20,505.20,510.75,521.85,521.85,521.85,521.85,521.85,521.85,510.75,510.75,510.75,505.20,505.20,505.20,501.87,499.65,499.65,499.65,491.89,491.89,491.89,484.12,484.12,476.35,476.35,476.35,463.03,463.03,463.03,455.26,455.26,445.27,445.27,445.27,445.27,445.27,445.27,445.27,445.27,445.27,445.27,445.27,445.27,445.27,445.27,455.26,455.26,455.26,455.26,455.26,463.03,476.35,476.35,476.35,484.12,484.12,484.12,484.12,491.89,491.89
318.76,319.87,319.87,319.87,318.76,319.87,319.87,319.87,319.87,319.87,320.98,319.87,319.87,320.98,319.87,322.09,319.87,322.09,320.98,320.98,322.09,322.09,322.09,322.09,323.20,323.20,322.09,324.31,322.09,323.20,323.20,323.20,324.31,324.31,325.42,325.42,328.75,330.96,334.29,365.37,392.00,417.53,447.49,481.90,487.45,487.45,486.34,487.45,487.45,486.34,486.34,487.45,487.45,486.34,487.45,486.34,486.34,485.23,486.34,487.45,486.34,486.34,486.34,485.23,486.34,485.23,485.23,486.34,486.34,485.23,486.34,485.23,484.12,486.34,484.12,485.23,484.12,485.23,484.12,486.34,485.23,484.12,486.34,484.12,484.12,485.23,485.23,484.12,484.12,484.12,484.12,484.12,484.12,484.12,484.12,483.01,484.12,483.01,483.01,481.90,483.01,481.90,483.01,481.90,483.01,481.90,483.01,481.90,483.01,481.90,483.01,483.01,483.01,483.01,484.12,484.12,485.23,487.45,488.56,493.00,494.11,496.33,497.44,498.55,498.55,499.65,498.55,499.65,498.55,499.65,499.65,499.65,499.65,498.55,498.55,498.55,498.55,498.55,498.55,498.55,497.44,497.44,497.44,496.33,495.22,495.22,494.11,494.11,494.11,494.11,494.11,494.11,493.00,494.11,494.11,493.00,500.76,500.76,500.76,500.76,500.76,500.76,500.76,500.76,500.76,500.76,500.76,500.76,500.76,500.76,500.76,500.76,500.76,500.76,500.76,500.76,500.76,500.76,500.76,500.76,500.76,493.00,493.00,493.00,493.00,489.67,489.67,489.67,489.67,489.67,484.12,484.12,484.12,489.67,489.67,489.67,489.67,493.00,493.00,500.76,500.76,500.76,517.41,525.18,530.73,531.84,531.84,534.06,536.28,536.28,536.28,536.28,539.61,539.61,539.61,541.83,541.83,541.83,541.83,541.83,544.05,544.05,544.05,544.05,544.05,544.05,544.05,544.05,544.05,544.05,544.05,544.05,544.05,544.05,544.05,544.05,544.05,544.05,544.05,544.05,544.05,544.05,544.05,550.71,550.71,544.05,544.05,544.05,544.05,544.05,544.05,544.05,544.05,544.05,544.05,544.05,544.05,550.71,550.71,550.71,550.71,550.71,550.71,550.71,550.71,550.71,550.71,550.71,550.71,550.71,549.60,549.60,549.60,549.60,546.27,546.27,546.27,542.94,532.95,532.95,532.95,534.06,521.85,444.16,406.43,362.04,362.04,362.04,362.04,362.04,362.04,362.04,367.59,367.59,367.59,372.03,377.58,377.58,390.89,398.66,408.65,408.65,408.65,419.75,419.75,419.75,445.27,445.27,445.27,445.27,445.27,445.27,445.27,445.27,445.27,445.27,445.27,445.27,445.27,445.27,445.27,445.27,455.26,455.26,455.26,455.26,455.26,455.26,455.26,463.03,463.03,463.03,463.03,463.03,463.03,463.03,476.35,476.35,476.35,476.35,476.35,476.35,476.35,476.35,476.35,476.35,476.35,476.35,476.35,476.35,476.35,476.35,476.35,476.35,476.35,476.35,476.35,484.12,484.12,484.12,491.89,499.65,499.65,499.65,501.87,505.20,505.20,505.20,510.75,510.75,510.75,521.85,521.85,510.75,510.75,510.75,505.20,505.20,505.20,505.20,501.87,499.65,499.65,491.89,491.89,491.89,484.12,484.12,484.12,476.35,463.03,463.03,455.26,455.26,455.26,445.27,445.27,445.27,445.27,445.27,445.27,445.27,445.27,445.27,445.27,419.75,419.75,445.27,445.27,445.27,445.27,445.27,445.27,445.27,445.27,445.27,455.26,455.26,463.03,463.03,476.35,476.35,476.35,476.35,476.35,476.35
318.76,319.87,318.76,319.87,319.87,318.76,319.87,320.98,319.87,320.98,319.87,322.09,320.98,320.98,319.87,322.09,320.98,320.98,322.09,322.09,320.98,322.09,322.09,320.98,322.09,323.20,323.20,322.09,324.31,322.09,324.31,323.20,324.31,325.42,324.31,325.42,325.42,327.64,356.49,398.66,418.64,463.03,487.45,486.34,487.45,486.34,487.45,486.34,486.34,487.45,486.34,486.34,486.34,487.45,486.34,486.34,487.45,486.34,487.45,485.23,486.34,486.34,485.23,486.34,485.23,485.23,486.34,484.12,485.23,486.34,485.23,486.34,485.23,484.12,485.23,484.12,486.34,485.23,486.34,484.12,484.12,485.23,484.12,485.23,484.12,484.12,484.12,485.23,484.12,484.12,483.01,484.12,483.01,483.01,483.01,484.12,483.01,483.01,483.01,483.01,481.90,483.01,481.90,483.01,481.90,481.90,481.90,483.01,481.90,481.90,483.01,481.90,483.01,481.90,483.01,483.01,483.01,484.12,484.12,487.45,487.45,489.67,493.00,495.22,496.33,497.44,498.55,498.55,498.55,500.76,498.55,498.55,498.55,498.55,498.55,498.55,498.55,498.55,498.55,497.44,497.44,497.44,496.33,495.22,495.22,494.11,495.22,494.11,494.11,494.11,493.00,493.00,494.11,493.00,493.00,493.00,500.76,500.76,500.76,500.76,500.76,500.76,500.76,500.76,500.76,500.76,500.76,500.76,500.76,500.76,500.76,500.76,500.76,500.76,500.76,500.76,500.76,500.76,500.76,500.76,500.76,493.00,493.00,493.00,493.00,489.67,489.67,489.67,489.67,489.67,484.12,484.12,489.67,489.67,489.67,489.67,489.67,489.67,493.00,497.44,500.76,506.31,515.19,525.18,528.51,531.84,531.84,534.06,536.28,536.28,536.28,536.28,539.61,539.61,539.61,541.83,541.83,541.83,541.83,541.83,544.05,544.05,544.05,544.05,544.05,544.05,544.05,544.05,544.05,544.05,544.05,544.05,544.05,544.05,544.05,544.05,544.05,544.05,544.05,544.05,544.05,544.05,544.05,550.71,550.71,544.05,544.05,544.05,544.05,544.05,544.05,544.05,544.05,544.05,544.05,544.05,544.05,550.71,550.71,550.71,550.71,550.71,550.71,550.71,550.71,550.71,550.71,550.71,550.71,550.71,549.60,549.60,549.60,549.60,546.27,546.27,546.27,546.27,537.39,537.39,537.39,536.28,531.84,445.27,406.43,375.36,363.15,362.04,362.04,362.04,362.04,362.04,362.04,362.04,367.59,367.59,377.58,377.58,385.35,390.89,398.66,398.66,398.66,408.65,408.65,408.65,419.75,419.75,419.75,419.75,445.27,445.27,445.27,445.27,445.27,445.27,445.27,445.27,445.27,445.27,445.27,445.27,445.27,445.27,445.27,445.27,445.27,445.27,445.27,445.27,455.26,455.26,455.26,455.26,455.26,455.26,455.26,455.26,455.26,455.26,455.26,455.26,455.26,455.26,455.26,455.26,463.03,463.03,463.03,463.03,463.03,463.03,463.03,463.03,463.03,463.03,463.03,476.35,476.35,476.35,484.12,491.89,491.89,499.65,499.65,501.87,501.87,505.20,510.75,510.75,510.75,521.85,521.85,510.75,510.75,510.75,505.20,505.20,505.20,505.20,501.87,499.65,499.65,491.89,491.89,491.89,484.12,484.12,484.12,476.35,463.03,463.03,455.26,455.26,455.26,445.27,445.27,445.27,445.27,445.27,445.27,445.27,408.65,408.65,408.65,408.65,408.65,419.75,408.65,408.65,419.75,419.75,419.75,419.75,445.27,445.27,445.27,445.27,445.27,445.27,455.26,455.26,455.26,463.03,463.03,463.03
319.87,318.76,319.87,318.76,319.87,319.87,319.87,319.87,319.87,320.98,319.87,319.87,319.87,320.98,320.98,319.87,322.09,320.98,320.98,322.09,322.09,322.09,322.09,323.20,322.09,323.20,323.20,322.09,324.31,322.09,323.20,323.20,323.20,325.42,323.20,325.42,325.42,326.53,378.69,411.98,467.47,487.45,486.34,488.56,486.34,486.34,487.45,487.45,487.45,486.34,487.45,487.45,486.34,486.34,487.45,486.34,486.34,486.34,486.34,486.34,486.34,485.23,486.34,485.23,485.23,486.34,484.12,485.23,486.34,485.23,485.23,484.12,486.34,484.12,485.23,484.12,484.12,484.12,484.12,484.12,485.23,484.12,484.12,484.12,485.23,484.12,484.12,484.12,484.12,485.23,483.01,485.23,483.01,484.12,483.01,483.01,484.12,483.01,483.01,481.90,483.01,483.01,483.01,481.90,481.90,483.01,481.90,481.90,481.90,481.90,481.90,481.90,481.90,483.01,481.90,481.90,481.90,483.01,483.01,483.01,484.12,485.23,487.45,488.56,493.00,494.11,496.33,497.44,498.55,498.55,498.55,498.55,498.55,498.55,498.55,498.55,498.55,497.44,497.44,497.44,497.44,496.33,496.33,495.22,495.22,494.11,494.11,494.11,494.11,493.00,494.11,493.00,494.11,493.00,493.00,493.00,500.76,500.76,499.65,500.76,500.76,500.76,500.76,500.76,500.76,500.76,500.76,500.76,500.76,500.76,500.76,500.76,500.76,500.76,500.76,500.76,500.76,500.76,500.76,500.76,493.00,493.00,493.00,493.00,493.00,489.67,489.67,489.67,489.67,489.67,489.67,489.67,489.67,489.67,489.67,489.67,489.67,489.67,494.11,494.11,498.55,511.86,517.41,528.51,528.51,531.84,531.84,534.06,536.28,536.28,536.28,536.28,539.61,539.61,539.61,539.61,539.61,541.83,541.83,541.83,544.05,544.05,544.05,544.05,544.05,544.05,544.05,544.05,544.05,544.05,544.05,544.05,544.05,544.05,544.05,544.05,544.05,544.05,544.05,544.05,544.05,544.05,544.05,550.71,550.71,544.05,544.05,544.05,544.05,544.05,544.05,550.71,550.71,550.71,550.71,550.71,550.71,550.71,550.71,550.71,550.71,550.71,550.71,550.71,550.71,550.71,550.71,550.71,549.60,549.60,549.60,549.60,549.60,549.60,546.27,546.27,546.27,546.27,542.94,538.50,536.28,530.73,490.78,448.60,396.44,368.70,364.26,362.04,362.04,362.04,362.04,362.04,362.04,362.04,367.59,367.59,377.58,377.58,385.35,390.89,398.66,398.66,398.66,408.65,408.65,408.65,419.75,419.75,419.75,419.75,445.27,445.27,445.27,445.27,445.27,419.75,419.75,419.75,419.75,419.75,419.75,419.75,419.75,419.75,419.75,445.27,445.27,445.27,445.27,445.27,445.27,445.27,445.27,445.27,445.27,445.27,455.26,455.26,455.26,445.27,445.27,445.27,445.27,445.27,445.27,445.27,445.27,445.27,445.27,445.27,445.27,445.27,445.27,445.27,445.27,445.27,455.26,455.26,455.26,463.03,476.35,484.12,484.12,484.12,499.65,499.65,499.65,501.87,505.20,505.20,510.75,510.75,510.75,510.75,505.20,505.20,505.20,505.20,505.20,501.87,499.65,499.65,499.65,491.89,484.12,484.12,476.35,476.35,476.35,463.03,455.26,455.26,445.27,445.27,445.27,445.27,445.27,445.27,419.75,419.75,419.75,419.75,408.65,408.65,408.65,408.65,408.65,419.75,408.65,408.65,419.75,419.75,419.75,419.75,445.27,445.27,445.27,445.27,445.27,445.27,455.26,455.26,455.26,463.03,463.03,463.03
319.87,318.76,319.87,319.87,319.87,319.87,319.87,319.87,319.87,320.98,319.87,320.98,319.87,319.87,322.09,319.87,322.09,320.98,322.09,322.09,320.98,323.20,320.98,322.09,323.20,320.98,323.20,322.09,322.09,324.31,322.09,324.31,323.20,324.31,324.31,324.31,325.42,342.06,398.66,437.51,487.45,487.45,486.34,486.34,486.34,487.45,486.34,486.34,486.34,487.45,486.34,486.34,487.45,486.34,486.34,486.34,486.34,486.34,486.34,486.34,485.23,486.34,486.34,485.23,486.34,485.23,485.23,486.34,484.12,486.34,485.23,485.23,484.12,485.23,484.12,485.23,484.12,486.34,484.12,486.34,484.12,485.23,484.12,485.23,484.12,484.12,485.23,484.12,483.01,484.12,483.01,484.12,483.01,483.01,484.12,484.12,483.01,483.01,483.01,483.01,481.90,483.01,481.90,483.01,483.01,481.90,481.90,483.01,481.90,483.01,481.90,483.01,481.90,481.90,483.01,481.90,481.90,481.90,481.90,481.90,481.90,483.01,483.01,484.12,486.34,487.45,491.89,493.00,495.22,497.44,497.44,498.55,498.55,498.55,498.55,498.55,498.55,497.44,497.44,497.44,497.44,496.33,495.22,495.22,495.22,495.22,494.11,495.22,495.22,494.11,494.11,493.00,494.11,493.00,493.00,493.00,500.76,500.76,499.65,500.76,500.76,500.76,500.76,500.76,500.76,500.76,500.76,500.76,500.76,500.76,500.76,500.76,500.76,500.76,500.76,500.76,500.76,500.76,500.76,500.76,493.00,493.00,493.00,493.00,493.00,493.00,489.67,489.67,489.67,489.67,489.67,489.67,489.67,489.67,489.67,489.67,489.67,489.67,493.00,494.11,502.98,509.64,522.96,530.73,528.51,531.84,531.84,534.06,536.28,536.28,536.28,536.28,539.61,539.61,539.61,539.61,539.61,541.83,541.83,541.83,544.05,544.05,544.05,544.05,544.05,544.05,544.05,544.05,544.05,544.05,544.05,544.05,544.05,544.05,544.05,544.05,544.05,544.05,544.05,544.05,544.05,544.05,544.05,544.05,544.05,544.05,544.05,544.05,544.05,544.05,550.71,550.71,550.71,550.71,550.71,550.71,550.71,550.71,550.71,550.71,550.71,550.71,550.71,550.71,550.71,550.71,550.71,550.71,549.60,549.60,549.60,549.60,549.60,549.60,549.60,547.38,546.27,545.16,542.94,540.72,538.50,502.98,474.13,421.97,386.45,373.14,366.48,362.04,362.04,362.04,362.04,362.04,362.04,362.04,362.04,367.59,372.03,372.03,377.58,385.35,385.35,390.89,390.89,398.66,398.66,398.66,398.66,398.66,408.65,408.65,408.65,408.65,408.65,408.65,408.65,419.75,419.75,419.75,419.75,419.75,419.75,419.75,419.75,419.75,419.75,445.27,445.27,445.27,445.27,445.27,445.27,445.27,445.27,445.27,445.27,445.27,455.26,455.26,455.26,445.27,445.27,445.27,445.27,445.27,445.27,445.27,445.27,445.27,445.27,445.27,445.27,445.27,445.27,445.27,445.27,445.27,445.27,445.27,445.27,455.26,463.03,476.35,476.35,484.12,491.89,499.65,499.65,501.87,505.20,505.20,505.20,505.20,505.20,505.20,505.20,505.20,505.20,501.87,501.87,501.87,499.65,499.65,491.89,484.12,484.12,476.35,476.35,463.03,463.03,455.26,445.27,445.27,445.27,419.75,419.75,419.75,408.65,408.65,408.65,398.66,398.66,398.66,398.66,398.66,398.66,398.66,398.66,398.66,398.66,398.66,398.66,398.66,398.66,408.65,408.65,408.65,419.75,419.75,419.75,445.27,445.27,445.27,445.27,445.27,445.27,445.27
318.76,319.87,318.76,319.87,318.76,318.76,320.98,319.87,319.87,319.87,322.09,319.87,322.09,319.87,320.98,320.98,320.98,320.98,319.87,323.20,320.98,322.09,320.98,323.20,322.09,323.20,322.09,324.31,322.09,324.31,323.20,323.20,324.31,323.20,325.42,324.31,325.42,365.37,406.43,455.26,487.45,486.34,488.56,486.34,488.56,486.34,486.34,487.45,487.45,486.34,486.34,487.45,486.34,486.34,487.45,486.34,485.23,486.34,485.23,485.23,486.34,485.23,485.23,486.34,484.12,485.23,486.34,484.12,486.34,484.12,484.12,486.34,484.12,484.12,484.12,484.12,485.23,484.12,484.12,484.12,485.23,484.12,484.12,484.12,484.12,485.23,483.01,484.12,484.12,484.12,483.01,484.12,483.01,484.12,483.01,483.01,483.01,483.01,483.01,483.01,483.01,481.90,483.01,481.90,481.90,481.90,483.01,481.90,481.90,481.90,481.90,481.90,481.90,483.01,481.90,481.90,481.90,480.79,481.90,481.90,481.90,481.90,481.90,481.90,483.01,483.01,485.23,487.45,490.78,493.00,495.22,496.33,497.44,498.55,498.55,497.44,497.44,497.44,497.44,497.44,496.33,496.33,495.22,495.22,494.11,494.11,494.11,494.11,494.11,494.11,494.11,493.00,494.11,494.11,494.11,495.22,497.44,499.65,499.65,501.87,499.65,500.76,500.76,500.76,500.76,500.76,500.76,500.76,500.76,500.76,500.76,500.76,500.76,500.76,500.76,500.76,493.00,493.00,493.00,493.00,493.00,493.00,493.00,493.00,493.00,493.00,489.67,489.67,489.67,489.67,489.67,489.67,489.67,489.67,489.67,489.67,489.67,489.67,489.67,493.00,502.98,509.64,522.96,530.73,528.51,531.84,531.84,534.06,536.28,536.28,536.28,536.28,539.61,539.61,539.61,539.61,539.61,541.83,541.83,541.83,544.05,544.05,544.05,544.05,544.05,544.05,544.05,544.05,544.05,544.05,544.05,544.05,544.05,544.05,544.05,544.05,544.05,544.05,544.05,544.05,544.05,544.05,544.05,544.05,544.05,544.05,544.05,544.05,544.05,544.05,550.71,550.71,550.71,550.71,550.71,550.71,550.71,550.71,550.71,550.71,550.71,550.71,550.71,550.71,550.71,550.71,550.71,549.60,549.60,549.60,549.60,549.60,549.60,546.27,546.27,546.27,546.27,544.05,541.83,538.50,534.06,495.22,438.62,389.78,398.66,372.03,372.03,362.04,362.04,362.04,362.04,362.04,362.04,362.04,362.04,362.04,362.04,367.59,372.03,377.58,377.58,385.35,385.35,390.89,390.89,390.89,390.89,390.89,398.66,398.66,398.66,398.66,398.66,398.66,398.66,408.65,408.65,408.65,408.65,408.65,408.65,408.65,408.65,408.65,408.65,419.75,419.75,419.75,419.75,445.27,445.27,445.27,445.27,445.27,445.27,445.27,445.27,445.27,445.27,445.27,445.27,445.27,445.27,445.27,445.27,445.27,445.27,445.27,445.27,445.27,445.27,445.27,445.27,445.27,445.27,445.27,445.27,445.27,445.27,455.26,463.03,476.35,476.35,484.12,491.89,499.65,499.65,501.87,505.20,505.20,505.20,505.20,505.20,505.20,505.20,505.20,505.20,501.87,501.87,501.87,499.65,499.65,491.89,484.12,484.12,476.35,476.35,463.03,463.03,445.27,445.27,445.27,408.65,398.66,398.66,398.66,390.89,390.89,390.89,390.89,390.89,385.35,385.35,385.35,385.35,385.35,385.35,385.35,385.35,385.35,390.89,390.89,390.89,390.89,390.89,398.66,398.66,398.66,398.66,408.65,408.65,408.65,419.75,419.75,419.75,419.75
319.87,318.76,320.98,318.76,320.98,318.76,319.87,318.76,320.98,319.87,319.87,319.87,319.87,322.09,319.87,320.98,322.09,320.98,323.20,320.98,322.09,320.98,323.20,320.98,323.20,323.20,320.98,323.20,323.20,322.09,324.31,323.20,324.31,323.20,324.31,323.20,334.29,380.91,415.31,478.57,487.45,488.56,486.34,486.34,486.34,487.45,486.34,486.34,486.34,487.45,486.34,486.34,486.34,487.45,485.23,486.34,486.34,485.23,486.34,486.34,485.23,485.23,486.34,485.23,485.23,486.34,484.12,485.23,484.12,484.12,486.34,484.12,484.12,486.34,484.12,485.23,484.12,485.23,484.12,485.23,484.12,485.23,484.12,484.12,484.12,483.01,484.12,484.12,483.01,483.01,484.12,483.01,483.01,483.01,483.01,484.12,484.12,484.12,483.01,484.12,481.90,483.01,481.90,481.90,483.01,481.90,481.90,483.01,481.90,481.90,481.90,481.90,483.01,480.79,481.90,481.90,480.79,481.90,481.90,480.79,481.90,480.79,481.90,481.90,481.90,481.90,481.90,483.01,484.12,487.45,490.78,490.78,494.11,495.22,496.33,497.44,497.44,497.44,497.44,497.44,496.33,495.22,495.22,495.22,495.22,494.11,495.22,495.22,494.11,494.11,494.11,494.11,494.11,494.11,494.11,495.22,497.44,498.55,500.76,499.65,500.76,500.76,499.65,501.87,500.76,500.76,500.76,500.76,500.76,500.76,500.76,500.76,500.76,500.76,493.00,493.00,493.00,493.00,493.00,493.00,493.00,493.00,493.00,493.00,493.00,493.00,489.67,489.67,489.67,489.67,489.67,489.67,489.67,489.67,489.67,489.67,489.67,489.67,493.00,495.22,502.98,512.97,519.63,525.18,530.73,531.84,532.95,534.06,536.28,536.28,536.28,536.28,536.28,536.28,539.61,539.61,539.61,539.61,541.83,541.83,541.83,544.05,544.05,544.05,544.05,544.05,544.05,544.05,544.05,544.05,544.05,544.05,544.05,544.05,544.05,544.05,544.05,544.05,544.05,544.05,544.05,544.05,544.05,544.05,544.05,544.05,544.05,544.05,550.71,550.71,550.71,550.71,550.71,550.71,550.71,550.71,550.71,550.71,550.71,550.71,550.71,550.71,550.71,550.71,550.71,550.71,550.71,549.60,549.60,549.60,549.60,549.60,549.60,546.27,546.27,546.27,545.16,544.05,540.72,538.50,537.39,486.34,438.62,389.78,398.66,372.03,372.03,362.04,362.04,362.04,362.04,362.04,362.04,362.04,362.04,362.04,362.04,367.59,372.03,377.58,377.58,377.58,377.58,377.58,377.58,385.35,385.35,385.35,385.35,390.89,390.89,390.89,390.89,390.89,390.89,390.89,398.66,398.66,398.66,398.66,398.66,398.66,398.66,398.66,398.66,408.65,408.65,408.65,408.65,419.75,419.75,419.75,419.75,445.27,445.27,445.27,445.27,445.27,445.27,445.27,445.27,419.75,419.75,419.75,419.75,419.75,419.75,419.75,419.75,419.75,419.75,419.75,419.75,419.75,419.75,419.75,419.75,445.27,445.27,445.27,445.27,463.03,463.03,476.35,484.12,484.12,491.89,499.65,501.87,501.87,505.20,505.20,505.20,505.20,501.87,501.87,501.87,501.87,501.87,499.65,499.65,499.65,484.12,476.35,476.35,476.35,463.03,455.26,455.26,445.27,445.27,445.27,408.65,398.66,398.66,398.66,390.89,390.89,390.89,390.89,390.89,385.35,385.35,385.35,385.35,385.35,385.35,385.35,385.35,385.35,390.89,390.89,390.89,390.89,390.89,398.66,398.66,398.66,398.66,408.65,408.65,408.65,419.75,419.75,419.75,419.75
318.76,318.76,319.87,318.76,318.76,320.98,318.76,320.98,319.87,320.98,320.98,320.98,319.87,320.98,320.98,320.98,320.98,320.98,320.98,320.98,323.20,320.98,322.09,323.20,322.09,323.20,323.20,322.09,323.20,323.20,323.20,323.20,324.31,323.20,324.31,324.31,356.49,399.77,446.38,488.56,487.45,486.34,487.45,488.56,487.45,486.34,486.34,486.34,487.45,486.34,486.34,487.45,486.34,486.34,486.34,486.34,485.23,486.34,485.23,485.23,486.34,485.23,485.23,485.23,486.34,485.23,485.23,486.34,484.12,486.34,484.12,484.12,485.23,484.12,484.12,484.12,484.12,484.12,484.12,484.12,484.12,484.12,484.12,484.12,485.23,483.01,484.12,483.01,484.12,483.01,483.01,484.12,483.01,484.12,484.12,483.01,483.01,483.01,483.01,483.01,481.90,483.01,481.90,483.01,481.90,481.90,483.01,481.90,481.90,481.90,481.90,480.79,481.90,481.90,481.90,480.79,481.90,480.79,481.90,480.79,481.90,480.79,480.79,481.90,481.90,480.79,481.90,481.90,481.90,483.01,484.12,486.34,489.67,490.78,494.11,495.22,496.33,496.33,496.33,496.33,496.33,495.22,495.22,495.22,494.11,495.22,494.11,494.11,494.11,494.11,494.11,494.11,494.11,494.11,495.22,495.22,497.44,498.55,498.55,499.65,500.76,500.76,499.65,500.76,499.65,500.76,500.76,500.76,500.76,500.76,500.76,500.76,500.76,500.76,493.00,493.00,493.00,493.00,493.00,493.00,493.00,493.00,493.00,493.00,493.00,493.00,489.67,489.67,489.67,489.67,489.67,489.67,489.67,489.67,489.67,489.67,489.67,489.67,494.11,499.65,506.31,511.86,516.30,522.96,527.40,531.84,535.17,536.28,536.28,536.28,536.28,536.28,536.28,536.28,539.61,539.61,539.61,539.61,541.83,541.83,541.83,541.83,541.83,544.05,544.05,544.05,544.05,544.05,544.05,544.05,544.05,544.05,544.05,544.05,544.05,544.05,544.05,544.05,544.05,544.05,544.05,544.05,544.05,544.05,544.05,544.05,544.05,544.05,550.71,550.71,550.71,550.71,550.71,550.71,550.71,550.71,550.71,550.71,550.71,550.71,550.71,550.71,550.71,550.71,550.71,549.60,549.60,549.60,549.60,549.60,549.60,546.27,546.27,546.27,542.94,542.94,542.94,542.94,537.39,537.39,537.39,512.97,460.81,418.64,398.66,372.03,372.03,362.04,362.04,346.50,346.50,362.04,362.04,362.04,362.04,362.04,362.04,362.04,367.59,372.03,372.03,372.03,377.58,377.58,377.58,385.35,385.35,385.35,385.35,390.89,390.89,390.89,390.89,390.89,390.89,390.89,398.66,398.66,398.66,398.66,398.66,398.66,398.66,398.66,398.66,408.65,408.65,408.65,408.65,419.75,419.75,419.75,419.75,445.27,445.27,445.27,445.27,445.27,419.75,419.75,419.75,419.75,419.75,419.75,408.65,408.65,408.65,408.65,408.65,408.65,408.65,408.65,408.65,408.65,408.65,408.65,419.75,419.75,419.75,445.27,445.27,445.27,445.27,463.03,476.35,476.35,484.12,491.89,499.65,499.65,501.87,501.87,501.87,501.87,501.87,501.87,499.65,499.65,499.65,499.65,491.89,491.89,476.35,463.03,463.03,455.26,445.27,445.27,445.27,419.75,419.75,408.65,390.89,390.89,385.35,385.35,385.35,377.58,377.58,377.58,377.58,377.58,377.58,377.58,377.58,377.58,377.58,377.58,377.58,377.58,377.58,377.58,385.35,385.35,385.35,385.35,385.35,390.89,390.89,390.89,398.66,398.66,398.66,398.66,398.66,398.66
318.76,319.87,318.76,319.87,318.76,319.87,319.87,319.87,319.87,319.87,319.87,319.87,322.09,319.87,320.98,320.98,320.98,320.98,322.09,320.98,320.98,323.20,320.98,322.09,323.20,322.09,322.09,323.20,322.09,324.31,323.20,324.31,323.20,324.31,323.20,325.42,377.58,417.53,479.68,487.45,488.56,486.34,488.56,486.34,486.34,487.45,486.34,487.45,486.34,487.45,486.34,486.34,486.34,486.34,487.45,485.23,486.34,485.23,486.34,486.34,485.23,485.23,486.34,484.12,484.12,485.23,484.12,484.12,484.12,484.12,484.12,485.23,484.12,485.23,484.12,485.23,484.12,485.23,485.23,484.12,484.12,485.23,484.12,485.23,484.12,484.12,484.12,484.12,483.01,484.12,483.01,483.01,483.01,483.01,483.01,484.12,484.12,483.01,483.01,484.12,481.90,481.90,483.01,481.90,483.01,481.90,481.90,483.01,481.90,481.90,483.01,481.90,483.01,480.79,481.90,480.79,483.01,480.79,481.90,480.79,481.90,480.79,481.90,480.79,480.79,481.90,481.90,480.79,481.90,481.90,481.90,481.90,483.01,486.34,489.67,489.67,493.00,491.89,493.00,494.11,493.00,493.00,493.00,494.11,491.89,491.89,491.89,493.00,493.00,493.00,493.00,493.00,494.11,494.11,495.22,495.22,495.22,495.22,495.22,496.33,496.33,496.33,497.44,498.55,498.55,500.76,500.76,500.76,500.76,500.76,500.76,500.76,500.76,493.00,493.00,493.00,493.00,493.00,493.00,493.00,493.00,493.00,493.00,493.00,493.00,493.00,489.67,489.67,489.67,489.67,489.67,489.67,489.67,489.67,489.67,489.67,489.67,489.67,497.44,500.76,510.75,510.75,510.75,514.08,524.07,530.73,535.17,535.17,536.28,536.28,536.28,536.28,536.28,536.28,539.61,539.61,539.61,539.61,539.61,539.61,541.83,541.83,541.83,541.83,544.05,544.05,544.05,544.05,544.05,544.05,544.05,544.05,544.05,544.05,544.05,544.05,544.05,544.05,544.05,544.05,544.05,544.05,544.05,544.05,544.05,544.05,544.05,544.05,550.71,550.71,550.71,550.71,550.71,550.71,550.71,550.71,550.71,550.71,550.71,550.71,550.71,550.71,550.71,550.71,550.71,549.60,549.60,549.60,549.60,549.60,546.27,546.27,546.27,546.27,542.94,542.94,542.94,539.61,537.39,537.39,537.39,510.75,477.46,438.62,387.56,372.03,372.03,362.04,362.04,346.50,346.50,346.50,346.50,346.50,362.04,362.04,362.04,362.04,367.59,367.59,367.59,372.03,372.03,372.03,372.03,377.58,377.58,377.58,377.58,385.35,385.35,385.35,385.35,385.35,385.35,385.35,385.35,385.35,390.89,390.89,390.89,390.89,390.89,390.89,390.89,398.66,398.66,398.66,408.65,408.65,408.65,408.65,419.75,419.75,419.75,419.75,419.75,419.75,419.75,419.75,419.75,419.75,419.75,419.75,408.65,408.65,408.65,408.65,408.65,408.65,408.65,408.65,408.65,408.65,408.65,408.65,419.75,419.75,419.75,445.27,445.27,445.27,445.27,463.03,476.35,476.35,484.12,491.89,499.65,499.65,501.87,501.87,501.87,501.87,501.87,501.87,499.65,499.65,499.65,499.65,484.12,484.12,476.35,455.26,455.26,445.27,445.27,445.27,419.75,408.65,408.65,390.89,385.35,385.35,377.58,372.03,372.03,372.03,367.59,367.59,367.59,367.59,367.59,367.59,367.59,367.59,372.03,372.03,372.03,372.03,372.03,372.03,372.03,372.03,372.03,377.58,377.58,377.58,377.58,377.58,385.35,385.35,385.35,385.35,385.35,385.35
318.76,318.76,320.98,318.76,320.98,318.76,320.98,318.76,319.87,319.87,322.09,319.87,319.87,322.09,319.87,322.09,320.98,320.98,320.98,322.09,322.09,322.09,322.09,322.09,323.20,322.09,323.20,322.09,322.09,324.31,323.20,323.20,324.31,324.31,324.31,352.05,399.77,448.60,488.56,486.34,487.45,487.45,487.45,486.34,487.45,486.34,487.45,486.34,486.34,486.34,487.45,486.34,486.34,485.23,486.34,486.34,485.23,486.34,485.23,485.23,486.34,485.23,485.23,486.34,486.34,484.12,486.34,485.23,485.23,485.23,484.12,485.23,484.12,484.12,484.12,484.12,485.23,483.01,484.12,484.12,485.23,484.12,484.12,484.12,484.12,484.12,483.01,483.01,484.12,483.01,483.01,484.12,483.01,484.12,483.01,483.01,483.01,484.12,484.12,481.90,483.01,481.90,481.90,483.01,481.90,483.01,481.90,481.90,481.90,483.01,481.90,481.90,481.90,480.79,481.90,480.79,481.90,480.79,481.90,480.79,480.79,481.90,480.79,480.79,481.90,479.68,479.68,481.90,479.68,480.79,480.79,480.79,481.90,481.90,483.01,487.45,488.56,487.45,488.56,487.45,489.67,489.67,489.67,489.67,489.67,489.67,490.78,489.67,490.78,489.67,489.67,489.67,490.78,489.67,490.78,490.78,493.00,494.11,493.00,494.11,494.11,494.11,495.22,495.22,497.44,498.55,493.00,493.00,493.00,493.00,493.00,493.00,493.00,493.00,493.00,493.00,493.00,493.00,493.00,493.00,493.00,493.00,493.00,493.00,493.00,493.00,493.00,489.67,489.67,489.67,489.67,489.67,489.67,489.67,489.67,493.00,493.00,500.76,500.76,500.76,510.75,510.75,510.75,514.08,524.07,530.73,535.17,537.39,536.28,536.28,536.28,536.28,536.28,536.28,539.61,539.61,539.61,539.61,539.61,539.61,541.83,541.83,541.83,541.83,544.05,544.05,544.05,544.05,544.05,544.05,544.05,544.05,544.05,544.05,544.05,544.05,544.05,544.05,544.05,544.05,544.05,544.05,544.05,544.05,544.05,544.05,544.05,550.71,550.71,550.71,550.71,550.71,550.71,550.71,550.71,550.71,550.71,550.71,550.71,550.71,550.71,550.71,550.71,550.71,550.71,549.60,549.60,549.60,549.60,549.60,546.27,546.27,546.27,546.27,542.94,542.94,542.94,539.61,539.61,537.39,537.39,520.74,499.65,454.15,423.08,380.91,373.14,362.04,357.60,346.50,346.50,346.50,346.50,346.50,346.50,362.04,362.04,362.04,362.04,362.04,362.04,367.59,367.59,367.59,372.03,372.03,372.03,372.03,372.03,372.03,372.03,372.03,372.03,372.03,377.58,377.58,377.58,377.58,377.58,385.35,385.35,385.35,385.35,385.35,385.35,390.89,390.89,390.89,398.66,398.66,398.66,398.66,408.65,408.65,408.65,408.65,408.65,408.65,408.65,408.65,408.65,408.65,398.66,398.66,398.66,398.66,398.66,398.66,398.66,398.66,398.66,398.66,398.66,398.66,398.66,398.66,408.65,408.65,408.65,419.75,419.75,419.75,445.27,445.27,463.03,463.03,476.35,484.12,491.89,491.89,499.65,499.65,499.65,499.65,499.65,499.65,499.65,499.65,499.65,499.65,484.12,484.12,476.35,455.26,455.26,445.27,445.27,445.27,419.75,408.65,408.65,390.89,385.35,385.35,377.58,372.03,372.03,372.03,367.59,367.59,367.59,367.59,367.59,367.59,367.59,367.59,372.03,372.03,372.03,372.03,372.03,372.03,367.59,367.59,367.59,372.03,372.03,372.03,372.03,372.03,372.03,372.03,372.03,372.03,372.03,372.03
