411,411,411,410,410,410,410,410,410,410,410,410,410,410,410,410,409,409,409,409,409,409,409,409,409,409,409,409,409,409,409,409,409,409,409,409,409,409,409,409,409,409,409,409,409,409,409,409,409,409,409,409,409,409,409,409,409,409,409,410,410,410,409,409,409,409,409,409,409,409,409,409,409,409,409,408,408,408,408,408,408,408,408,408,408,408,408,408,408,408,408,408,408,408,408,408,408,408,408,408,408,408,408,408,408,408,408,408,408,408,408,408,408,408,408,408,408,408,408,408,408,408,408,408,408,408,408,408,408,408,408,408,408,407,407,407,407,407,406,406,406,405,404,404,402,402,0,0,0,0,0,0,379,379,379,378,378,378,378,378,378,377,377,377,377,378,378,378,378,379,380,380,380,381,381,381,381,382,382,381,381,381,381,380,380,379,378,378,378,377,377,376,376,376,376,376,377,378,378,380,381,383,385,385,387,390,392,392,395,395,397,397,398,399,399,399,400,401,402,402,403,403,403,404,404,404,404,404,404,404,404,404,404,404,404,404,404,404,404,404,404,404,404,404,404,404,404,404,404,404,404,403,403,403,403,403,403,403,403,403,403,403,403,403,404,404,404,404,404,404,404,404,404,404,404,403,403,403,403,403,403,403,403,403,402,402,402,402,402,402,402,402,402,402,402,402,403,403,403,403,403,403,403,403,403,403,403,403,403,403,403,403,403,403,403,403,403,403,402,402,402,402,402,402,402,402,403,403,403,402,402,402,402,402,402,402,402,402,402,402,402,402,402,402,402,402,402,402,402,402,402,402,402,402,402,402,402,402,402,402,402,402,402,402,402,402,402,402,402,401,401,402,401,401,401,0,0,0,0,0,0,0,0,0,0,0,0,0,0,0,0,0,0,0,0,0,0,0,0,0,0,0,333,333,333,333,333,333,333,333,334,334,334,334,334,335,0,0,0,0,0,0,0,0,0,0,0,0,0,0,0,0,0,0,0,0,0,384,384,384,384,384,384,384,385,385,385,385,386,386,386,386,387,387,387,388,388,388,388,389,389,389,389,389,389,389,389,389,389,389,389,389,389,389,389,389,389,389,389,389,389,389,389,389,389,389,389,389,389,389,389,389,389,389,389,389,389,389,389,389,389,389,389,388,388,388,388,388,389,388,388,388,388,388,389,389,389,389,389,389,389,389,389,389,389,389,389,388,388,388,388,388,388,388,388,388,388,388,388,388,387,387,387,387,387,387,387,387,386,386,386,385,385,384,384,383,383,382,380,380,379,378,378,378,376,376,375,374,374,372,371,371,370,368,368,367,366,366,365,365,364,364,363,362,362,361,360,360,359,356,356,353,353,348,344,344,342,342,340,339,339,338,337,337,335,334,334,333,333,332,332,331,331,331,330,330,330,330,329,329,329,329,329,394,395,395,395,395,395,395,395,395,395,395,395,395,395,395,395,395,395,395,395,395,395,395,395,396,396,396,396,396,396,396,396,395,395,395,395,395,395,395,395,395,394,394,394,394,394,394,395,394,394,394,394,394,394,394,394,394,394,394,394,394,394,394,394,394,394,394,394,394,394,394,394,394,394,394,394,394,394,394,394,394,394,394,394,394,394,394,394,394,394,394,394,394,394,394,394,394,394,394,394,394,394,394,394,394,394,394,393,393,393,393,393,393,393,393,393,393,393,393,394,394,394,394,394,394,393,393,392,392,392,391,391,391,390,390,389,389,388,388,387,387,387,387,386,386,385,385,383,383,380,380,0,0
411,411,411,410,410,410,410,410,410,410,410,410,410,410,410,410,410,410,409,409,409,409,410,410,409,409,409,409,409,409,409,409,409,409,409,409,409,409,409,409,409,409,409,409,409,409,409,409,409,409,409,409,409,409,409,409,410,410,410,410,410,410,409,409,409,409,409,409,409,409,409,409,409,408,408,408,408,408,408,408,408,408,408,408,408,408,408,408,408,408,408,408,408,408,408,408,408,408,408,408,408,408,408,408,408,408,408,408,408,408,408,408,408,408,408,408,408,408,408,408,408,408,408,408,408,408,408,408,408,408,408,408,408,407,407,407,407,407,406,406,406,406,405,405,402,402,0,0,0,0,381,381,379,379,379,378,378,378,378,378,378,377,377,378,378,378,378,379,379,379,380,380,380,381,382,382,382,382,382,382,381,381,381,380,380,380,379,379,378,377,377,376,376,376,376,376,377,378,378,380,381,383,385,385,387,390,392,392,395,395,397,397,398,399,400,400,401,402,402,402,403,404,404,404,404,404,404,404,404,404,404,404,404,404,404,404,404,404,404,404,404,404,404,404,404,404,404,404,404,404,404,404,404,404,404,404,403,403,404,404,404,404,404,404,404,404,404,404,404,404,404,404,404,404,404,404,404,404,403,403,403,403,403,403,402,402,402,402,402,402,402,402,402,402,402,402,403,403,403,403,403,403,403,403,403,403,403,403,403,403,403,403,403,403,403,403,403,403,402,402,402,402,402,402,402,402,403,403,403,403,403,402,402,402,402,402,402,402,402,402,402,402,402,402,402,402,402,402,402,402,402,402,402,402,402,402,402,402,402,402,402,402,402,402,402,402,402,402,402,401,401,402,401,401,401,0,0,0,0,0,0,0,0,0,0,0,0,0,0,0,0,0,0,0,0,0,0,0,0,0,0,0,333,333,333,333,333,333,334,334,334,334,334,334,334,335,0,0,0,0,0,0,0,0,0,0,0,0,0,0,0,0,0,0,0,0,0,384,384,384,384,384,384,385,385,385,385,386,386,386,387,387,388,388,388,388,388,388,389,389,389,389,389,389,389,389,390,389,389,389,389,389,389,389,389,389,389,389,389,389,389,389,389,389,389,389,389,389,389,389,389,389,389,389,389,389,389,389,389,389,389,389,389,388,388,388,388,388,389,388,388,388,388,388,389,389,389,389,389,389,389,389,389,389,389,389,389,388,388,388,388,388,388,388,388,388,388,388,388,388,388,388,388,388,387,387,387,387,386,386,386,385,385,385,384,383,383,382,381,381,379,378,378,378,377,377,375,374,374,372,371,371,370,368,368,367,366,366,365,365,364,364,364,363,363,362,362,0,359,356,356,353,353,348,345,345,343,343,0,339,339,338,337,337,336,334,334,334,333,332,332,332,331,331,330,330,330,330,330,330,330,329,329,395,395,395,395,395,395,395,395,395,395,395,395,395,395,395,395,395,395,395,395,395,395,396,396,396,396,396,396,396,396,396,396,396,396,395,395,395,395,395,395,395,395,394,394,394,395,395,395,395,394,394,394,394,394,394,394,394,394,394,394,394,394,394,394,394,394,394,394,394,394,394,394,394,394,394,394,394,394,394,394,394,394,394,394,394,394,394,394,394,394,394,394,394,394,394,394,394,394,394,394,394,394,394,394,394,394,394,393,393,393,393,393,393,393,393,393,393,393,393,394,394,394,394,394,394,393,393,392,392,392,392,392,391,390,390,390,389,388,388,388,387,387,387,386,386,385,385,383,383,383,0,0,0
411,411,411,410,410,410,410,410,410,410,410,410,410,410,410,410,410,410,410,410,410,410,410,410,410,410,410,410,409,409,409,409,409,409,409,409,409,409,409,409,409,409,409,409,409,409,409,409,409,409,409,409,409,409,409,409,410,410,410,410,410,410,409,409,409,409,409,409,409,409,409,409,409,408,408,408,408,408,408,408,408,408,408,408,408,408,408,408,408,408,408,408,408,408,408,408,408,408,408,408,408,408,408,408,408,408,408,408,408,408,408,408,408,408,408,408,408,408,408,408,408,408,408,408,408,408,408,408,408,408,408,408,408,407,407,407,407,407,407,406,406,406,405,405,402,402,0,0,0,0,381,381,379,379,379,378,378,378,378,378,378,377,377,378,378,378,378,379,379,380,380,381,381,382,382,382,382,383,383,382,382,382,381,381,381,380,379,379,378,377,377,376,376,376,376,376,377,378,378,380,381,383,385,385,387,392,392,392,0,397,397,397,398,399,400,400,401,402,403,403,403,404,404,404,404,404,404,404,404,404,404,404,404,404,404,404,404,404,404,404,404,404,404,404,404,404,404,404,404,404,404,404,404,404,404,404,404,404,404,404,404,404,404,404,404,404,404,404,404,404,404,404,404,404,404,404,404,404,403,403,403,403,403,403,403,402,402,402,402,402,402,402,402,402,402,402,403,403,403,403,403,403,403,403,403,403,403,403,403,403,403,403,403,403,403,402,402,402,402,402,402,402,402,402,402,402,403,403,403,403,403,402,402,402,402,402,402,402,402,402,402,402,402,402,402,402,402,402,402,402,402,402,402,402,402,402,402,402,402,402,402,402,402,402,402,402,402,401,401,401,401,401,401,401,401,0,0,0,0,0,0,0,0,0,0,0,0,0,0,0,0,0,0,0,0,0,0,0,0,0,333,333,333,333,333,333,333,333,334,334,334,334,334,334,334,335,335,335,0,0,0,0,0,0,0,0,0,0,0,0,0,0,0,0,0,0,383,383,384,384,384,384,384,385,385,385,385,386,386,386,387,387,388,388,388,388,388,388,389,389,389,389,389,389,389,389,389,389,389,389,389,389,389,389,389,389,389,389,389,389,389,389,389,389,389,389,389,389,389,389,389,389,389,389,389,389,389,389,389,389,389,389,389,388,388,388,388,388,389,388,388,388,388,388,389,389,389,389,389,389,389,389,389,389,389,389,389,388,388,388,388,388,388,388,388,388,388,388,388,388,388,388,388,388,387,387,387,387,386,386,386,385,385,385,384,383,383,382,381,381,379,378,378,378,377,377,375,374,374,372,371,371,370,368,368,367,366,366,365,365,364,364,364,363,363,362,361,361,359,356,356,353,353,348,345,345,343,342,342,339,339,338,337,337,336,334,334,334,333,332,332,332,331,331,330,330,330,330,330,330,330,329,329,395,395,395,395,395,395,395,395,395,395,395,395,395,395,395,395,395,395,395,395,395,395,396,396,396,396,396,396,396,396,396,395,395,395,395,395,395,395,395,395,395,395,394,394,394,395,395,395,394,394,394,394,394,394,394,394,394,394,394,394,394,394,394,394,394,394,394,394,394,394,394,394,394,394,394,394,394,394,394,394,394,394,394,394,394,394,394,394,394,394,394,394,394,394,394,394,394,394,394,394,394,394,394,394,394,394,394,393,393,393,393,393,393,393,393,393,393,393,393,393,394,394,394,394,394,393,393,392,392,392,392,392,391,390,390,390,389,388,388,388,387,387,386,386,386,385,385,383,382,382,0,0,0
411,411,410,410,410,410,410,410,410,410,410,410,410,410,410,410,410,410,410,410,410,410,410,410,410,410,410,410,409,409,409,409,409,409,409,409,409,409,409,409,409,409,409,409,409,409,409,409,409,409,409,409,409,409,409,409,410,410,410,410,410,410,409,409,409,409,409,409,409,409,409,409,408,408,408,408,408,408,408,408,408,408,408,408,408,408,408,408,408,408,408,408,408,408,408,408,408,408,408,408,408,408,408,408,408,408,408,408,408,408,408,408,408,408,408,408,408,408,408,408,408,408,408,408,408,408,408,408,408,408,408,408,408,407,407,407,407,407,407,406,406,406,405,405,402,397,397,392,392,0,381,381,379,379,379,378,378,378,378,378,378,377,377,378,378,378,378,379,379,380,380,381,381,382,382,382,382,383,383,382,382,382,381,381,381,380,379,379,378,377,377,376,376,376,376,376,377,378,378,380,381,383,385,385,387,390,392,392,394,396,397,397,398,399,400,400,401,402,403,403,403,404,404,404,404,404,404,404,404,404,404,404,404,404,404,404,404,404,404,404,404,404,404,404,404,404,404,404,404,404,404,404,404,404,404,404,404,404,404,404,404,404,404,404,404,404,404,404,404,404,404,404,404,404,404,404,404,404,403,403,403,403,403,403,403,402,402,402,402,402,402,402,402,402,402,402,402,402,402,403,403,403,403,403,403,403,403,403,403,403,403,403,403,403,403,402,402,402,402,402,402,402,402,403,402,402,403,403,403,403,403,403,403,403,403,402,402,402,402,402,402,402,402,402,402,402,402,402,402,402,402,402,402,402,402,402,402,402,402,402,402,402,402,401,401,401,401,401,401,401,401,401,401,401,0,0,0,0,0,0,0,0,0,0,0,0,0,0,0,0,0,0,0,0,0,0,0,0,0,0,333,333,333,333,333,333,333,333,334,334,334,334,334,334,335,335,335,335,0,0,0,0,0,0,0,0,0,0,0,0,0,0,0,0,0,383,383,383,384,384,384,384,384,385,385,386,386,386,387,387,387,388,388,388,388,388,389,389,389,389,389,389,389,389,389,389,389,389,389,390,390,390,389,389,389,389,389,389,389,389,389,389,389,389,389,389,389,389,389,389,389,389,389,389,389,389,389,389,389,389,389,389,389,389,389,389,389,389,389,388,388,389,389,389,389,389,389,389,389,389,389,389,389,389,389,389,389,389,388,388,388,388,388,388,388,388,388,388,388,388,388,388,388,388,388,387,387,387,387,387,386,386,385,385,384,383,383,382,381,381,380,379,379,378,377,377,376,375,375,373,372,372,371,369,369,368,367,367,366,365,365,365,364,363,363,362,361,361,359,356,356,353,353,349,346,346,344,342,342,340,339,339,338,338,336,335,334,334,333,333,333,332,331,331,331,330,330,330,330,330,330,329,329,395,395,395,395,395,396,396,396,396,396,396,395,395,395,395,395,395,395,395,395,395,396,396,396,396,396,396,396,395,395,395,395,395,395,395,394,394,394,394,394,394,394,394,394,394,394,394,394,394,394,394,394,394,394,394,394,394,394,394,394,394,394,394,394,394,394,394,394,394,394,394,394,394,394,394,394,394,394,394,394,394,394,394,394,394,394,394,394,394,394,394,394,394,394,394,394,394,394,394,394,394,394,394,394,394,394,394,393,393,393,393,393,393,393,393,393,393,393,393,393,393,393,393,393,393,393,393,392,392,392,392,392,391,391,391,390,389,388,388,387,387,387,386,385,385,384,384,384,381,378,378,378,0
411,411,410,410,410,410,410,410,410,410,410,410,409,409,409,409,409,410,410,410,410,410,410,410,410,410,410,410,410,410,410,409,409,409,409,409,409,409,409,409,409,409,409,409,409,409,409,409,409,409,409,409,409,409,409,409,410,410,410,410,410,410,410,409,409,409,409,409,409,409,409,408,408,408,408,408,408,408,408,408,408,408,408,408,408,408,408,408,408,408,408,408,408,408,408,408,408,408,408,408,408,408,408,408,408,408,408,408,408,408,408,408,408,408,408,408,408,408,408,408,408,408,408,408,408,408,408,408,407,407,407,407,407,407,407,407,407,407,407,407,406,406,405,405,402,397,397,391,391,0,381,381,379,379,379,378,378,378,378,378,378,378,378,378,378,378,379,379,379,380,381,381,381,382,383,383,383,383,383,383,382,382,381,381,381,380,379,379,378,377,377,377,376,376,376,376,377,378,378,380,381,383,385,385,387,390,392,392,394,395,397,397,398,399,400,400,401,402,403,403,404,404,404,404,404,404,404,404,404,404,404,404,404,404,404,404,404,404,404,404,404,404,404,404,404,404,404,404,404,404,404,404,404,404,404,404,404,404,404,404,404,404,404,404,404,404,404,404,404,404,404,404,404,404,404,404,404,404,404,404,404,403,403,403,403,403,403,402,402,402,402,402,402,402,402,402,402,402,402,403,403,403,403,403,403,403,403,403,403,403,403,403,402,402,402,402,402,402,402,402,402,402,402,403,403,403,403,403,403,403,403,403,403,403,403,403,402,402,402,402,402,402,402,402,402,402,402,402,402,402,402,402,402,402,402,402,402,402,402,402,402,402,402,401,401,401,401,401,401,401,401,401,401,0,0,0,0,0,0,0,0,0,0,0,0,0,0,0,0,0,0,0,0,0,0,0,0,0,0,0,333,333,333,333,333,333,333,333,334,334,334,334,334,334,335,335,335,335,0,0,0,0,0,0,0,0,0,0,0,0,0,0,0,0,0,382,382,383,384,384,384,384,384,385,386,386,386,387,387,388,388,388,388,388,389,389,389,389,389,389,389,389,389,389,389,390,390,390,390,390,390,390,390,390,390,390,390,390,390,389,389,389,389,389,389,389,389,389,389,389,389,389,389,389,389,389,389,389,389,389,389,389,389,389,389,389,389,388,388,388,388,389,389,389,389,389,389,389,389,389,389,389,390,390,390,390,389,389,389,389,388,388,388,388,388,388,388,388,388,388,388,388,388,388,388,388,388,387,387,387,386,386,385,385,384,384,384,383,381,381,380,380,380,378,378,378,377,375,375,374,373,373,371,370,370,369,368,367,367,366,365,365,365,363,363,362,361,361,359,356,356,353,353,0,0,0,345,342,342,340,339,339,338,338,336,335,334,334,334,333,333,332,332,332,331,330,330,330,330,330,330,329,329,395,395,395,395,395,396,396,396,396,396,396,395,395,395,395,395,395,395,395,396,396,396,396,396,396,396,396,396,395,395,395,395,395,395,395,394,394,394,394,394,394,394,394,394,394,394,394,394,394,394,394,394,394,394,394,394,394,394,394,394,394,394,394,394,394,394,394,394,394,394,394,394,394,394,394,394,394,394,394,394,394,394,394,394,394,394,394,394,394,394,394,394,394,394,394,394,394,394,394,394,394,394,394,394,394,394,394,393,393,393,393,393,393,393,393,393,393,394,393,393,393,393,393,393,393,393,393,393,393,392,392,392,392,391,391,390,389,388,388,387,387,387,386,385,385,384,384,384,381,378,378,378,0
411,411,410,410,410,410,410,410,410,410,410,410,409,409,409,409,409,410,410,410,410,410,410,410,410,410,410,410,410,410,410,410,410,410,409,409,409,409,409,409,409,409,409,409,409,409,409,409,409,409,409,409,409,409,409,410,410,410,410,410,410,410,410,409,409,409,409,409,409,409,409,408,408,408,408,408,408,408,408,408,408,408,408,408,408,408,408,408,408,408,408,408,408,408,408,408,408,408,408,408,408,408,408,408,408,408,408,408,408,408,408,408,408,408,408,408,408,408,408,408,408,408,408,408,408,408,408,408,407,407,407,407,407,407,407,407,407,407,407,407,406,406,405,405,0,0,0,391,391,0,381,381,379,379,379,378,378,378,378,378,378,378,378,378,378,378,379,380,380,380,381,381,381,382,383,383,383,383,383,383,382,382,381,381,381,380,379,379,378,377,377,377,376,376,376,376,377,378,378,380,381,383,385,385,387,390,392,392,394,395,397,397,398,399,400,400,401,402,403,403,404,404,404,404,404,404,404,404,404,404,404,404,404,404,404,404,404,404,404,404,404,404,404,404,404,404,404,404,404,404,404,404,404,404,404,404,404,404,404,404,404,404,404,404,404,404,404,404,404,404,404,404,404,404,404,404,404,404,404,404,404,404,403,403,403,403,403,402,402,402,402,402,402,402,402,402,402,402,402,403,403,403,403,403,403,403,403,403,403,403,403,403,402,402,402,402,402,402,402,402,402,402,402,403,403,403,403,403,403,403,403,403,403,403,403,403,403,403,403,403,403,403,403,402,402,402,402,402,402,402,402,402,402,402,402,402,402,402,402,402,402,402,402,402,402,401,401,401,401,401,401,401,401,0,0,0,0,0,0,0,0,0,0,0,0,0,0,0,0,0,0,0,0,0,0,0,0,0,0,0,333,333,333,333,333,333,333,334,334,334,334,334,335,335,335,335,336,336,0,0,0,0,0,0,0,0,0,0,0,0,0,0,0,0,0,382,382,383,384,384,384,385,385,385,386,387,387,387,387,388,388,388,389,389,389,389,390,389,389,390,390,390,390,390,390,390,390,390,390,390,390,390,390,391,390,390,390,390,390,389,389,389,389,389,389,389,389,389,389,389,389,389,389,389,389,389,389,389,389,389,389,389,389,389,389,389,389,388,388,388,388,389,389,389,389,389,389,389,389,389,389,390,390,390,390,390,389,389,389,389,389,389,389,388,388,388,388,388,388,388,388,388,388,388,388,388,388,387,387,387,387,386,385,385,385,384,384,383,382,382,381,380,380,379,378,378,377,376,376,375,373,373,372,371,370,370,369,367,367,367,366,366,365,364,364,364,0,0,0,356,356,353,353,0,0,0,346,343,343,340,339,339,338,337,336,335,334,334,334,333,333,332,332,332,331,330,330,330,330,330,330,329,329,329,329,396,396,396,396,396,396,396,396,396,395,395,395,395,395,395,395,395,396,396,396,396,396,396,396,396,395,395,395,395,395,395,394,394,394,394,394,394,394,394,394,394,394,394,394,394,394,394,394,394,394,394,394,394,394,394,394,394,394,394,394,394,394,394,394,394,394,394,394,394,394,394,394,394,394,394,394,394,394,394,394,394,394,394,394,394,394,394,394,394,394,394,394,394,394,394,394,394,394,394,394,394,394,394,394,394,393,393,393,393,393,393,393,393,393,393,393,393,393,393,393,393,393,393,393,393,393,393,392,392,392,391,391,391,390,389,388,388,387,386,386,386,385,385,384,383,383,380,378,378,378,0
411,411,410,410,410,410,410,410,410,410,410,409,409,409,409,409,409,410,410,410,410,410,410,410,410,410,410,410,410,410,410,410,410,410,409,409,409,409,409,409,409,409,409,409,409,409,409,409,409,409,409,409,409,409,409,410,410,410,410,410,410,410,410,409,409,409,409,409,409,409,409,408,408,408,408,408,408,408,408,408,408,408,408,408,408,408,408,408,408,408,408,408,408,408,408,408,408,408,408,408,408,408,408,408,408,408,408,408,408,408,408,408,408,408,408,408,408,408,408,408,408,408,408,407,407,407,407,407,407,407,407,407,407,407,407,407,407,407,407,407,406,406,405,405,0,0,0,391,391,385,381,381,379,379,378,378,378,378,378,378,378,378,378,378,378,378,379,380,380,380,381,381,381,382,383,383,383,383,383,382,382,382,381,380,380,380,379,379,378,377,377,377,376,376,376,376,377,378,378,380,381,383,385,385,387,390,392,392,394,395,397,397,398,399,400,400,401,402,403,403,404,404,404,404,404,404,404,404,404,404,404,404,404,404,404,404,404,404,404,404,404,404,404,404,404,404,404,404,404,404,404,404,404,404,404,404,404,404,404,404,403,403,403,403,404,404,404,404,404,404,404,404,404,404,404,404,404,404,404,404,404,404,403,403,403,403,403,402,402,402,402,402,402,402,402,402,402,402,402,403,403,403,403,403,403,403,403,403,403,403,403,402,402,402,402,402,402,402,402,402,402,402,402,402,402,402,403,403,403,403,403,403,403,403,403,403,403,403,403,403,403,403,403,402,402,402,402,402,402,402,402,402,402,402,402,402,402,402,402,402,401,401,401,401,401,401,401,401,401,401,401,401,401,0,0,0,0,0,0,0,0,0,0,0,0,0,0,0,0,0,0,0,0,0,0,0,0,0,0,0,333,333,333,333,333,333,333,334,334,334,334,334,335,335,335,335,336,336,0,0,0,0,0,0,0,0,0,0,378,378,0,380,380,0,0,382,382,383,384,384,384,385,385,385,386,387,387,387,387,388,388,388,389,389,389,389,390,389,389,390,390,390,390,390,390,390,390,390,390,390,390,390,390,391,390,390,390,390,390,389,389,389,389,389,389,389,389,389,389,389,389,388,388,388,388,388,388,389,388,388,388,388,388,388,389,389,389,388,388,388,388,389,389,389,389,389,389,389,389,389,389,390,390,390,390,390,389,389,389,389,389,389,389,388,388,388,388,388,388,388,388,388,388,388,388,388,388,387,387,387,387,386,385,385,385,384,384,383,382,382,381,380,380,379,378,378,377,376,376,375,373,373,372,371,370,370,369,367,367,367,366,366,365,364,364,362,362,0,0,356,356,353,353,0,0,0,346,343,343,343,0,0,338,337,337,335,334,334,334,333,333,332,332,332,331,330,330,330,330,330,330,330,329,329,329,396,396,396,396,395,395,396,396,396,396,396,395,395,395,395,395,395,396,396,396,396,396,396,396,396,395,395,395,395,394,394,394,394,394,394,394,394,394,394,394,394,394,394,394,394,394,394,394,394,394,394,394,394,394,394,394,394,394,394,394,394,394,394,394,394,394,394,394,395,395,395,395,395,395,395,395,395,394,394,394,394,394,394,394,394,394,394,394,394,394,394,394,394,394,394,394,394,394,394,394,394,394,394,394,394,394,393,393,393,393,393,393,393,393,393,393,393,393,394,394,394,394,394,393,393,393,393,392,392,392,391,390,390,390,388,387,387,387,386,386,385,384,384,383,382,382,380,377,377,377,0
411,411,411,411,410,410,410,410,410,410,410,409,409,409,409,409,409,410,410,410,410,410,410,410,410,410,410,410,410,410,410,410,410,410,410,409,409,409,409,409,409,409,409,409,409,409,409,409,409,409,409,409,409,409,409,409,410,410,410,410,410,410,409,409,409,409,409,409,409,409,409,408,408,408,408,408,408,408,408,408,408,408,408,408,408,408,408,408,408,408,408,408,408,408,408,408,408,408,408,408,408,408,408,408,408,408,408,408,408,408,408,408,408,408,408,408,408,408,408,408,408,408,407,407,407,407,407,407,407,407,407,407,407,407,407,407,407,407,407,406,406,406,405,405,0,0,0,0,0,385,381,381,379,379,378,378,378,378,378,378,378,378,378,378,378,378,379,380,380,380,381,382,382,382,383,383,383,383,383,382,382,382,381,380,380,379,378,378,378,377,377,377,376,376,376,376,377,378,378,379,381,383,385,385,387,390,392,392,394,395,397,397,398,399,400,400,401,402,403,403,404,404,404,404,404,404,404,404,404,404,404,404,404,404,404,404,404,404,404,404,404,404,404,404,404,404,404,404,404,404,404,404,404,404,404,404,404,403,403,404,403,403,403,403,403,403,404,404,404,404,404,404,404,404,404,404,404,404,404,404,404,404,404,404,403,403,403,403,402,402,402,402,402,402,402,402,402,402,402,403,403,403,403,403,403,403,403,403,403,402,402,402,402,402,402,402,402,402,402,402,402,402,402,402,402,402,402,403,403,403,403,403,403,403,403,403,403,403,403,403,403,403,402,402,402,402,402,402,402,402,402,402,402,402,402,402,402,402,402,402,401,401,401,401,401,401,401,401,401,401,401,401,401,0,0,0,0,0,0,0,0,0,0,0,0,0,0,0,0,0,0,0,0,0,0,0,0,332,332,332,333,333,333,333,333,333,333,334,334,334,334,335,335,335,335,335,337,337,0,0,0,0,0,0,0,0,0,0,378,378,379,379,380,381,381,381,382,383,384,384,384,385,385,385,386,387,387,387,388,388,388,389,389,389,390,390,390,390,390,390,390,390,390,390,390,390,390,390,391,391,391,391,391,391,391,391,391,391,390,389,389,389,389,389,389,389,389,389,388,388,389,388,388,388,388,388,388,389,388,388,388,388,388,388,389,388,388,389,389,389,389,389,389,389,389,389,389,389,389,389,390,390,390,390,390,390,390,389,389,389,389,389,389,388,388,388,388,388,388,388,388,388,388,388,388,388,388,388,387,387,387,386,386,386,385,385,385,384,383,383,382,381,381,380,379,379,378,377,376,375,374,373,373,372,371,371,369,368,368,367,367,367,366,364,364,362,362,0,0,0,0,0,0,0,0,0,0,0,0,0,0,0,0,0,0,335,334,334,334,333,333,332,332,332,331,330,330,330,330,329,329,329,330,0,0,395,395,395,395,395,395,395,395,395,0,0,395,395,395,395,395,395,395,395,396,396,396,396,396,396,395,395,395,395,394,394,394,394,394,394,393,393,394,394,393,393,393,393,394,394,394,394,394,394,394,394,394,394,394,394,394,394,394,394,394,394,394,395,395,395,394,394,394,395,395,395,395,395,395,395,395,395,394,394,394,394,394,394,394,394,394,394,394,394,394,394,394,394,394,394,394,394,394,394,394,394,394,394,394,394,394,394,394,394,393,393,393,394,394,394,394,394,394,394,394,394,394,394,393,393,393,393,392,392,392,391,390,390,389,388,387,387,386,385,385,384,383,383,382,381,381,379,377,377,377,0
411,411,411,411,410,410,410,410,410,410,410,409,409,409,409,409,410,410,410,410,410,410,410,410,410,410,410,410,410,410,410,410,410,410,410,409,409,409,409,409,409,409,409,409,409,409,409,409,409,409,409,409,409,410,409,409,409,410,410,410,410,409,409,409,409,409,409,409,409,409,409,409,408,408,408,408,408,408,408,408,408,408,408,408,408,408,408,408,408,408,408,408,408,408,408,408,408,408,408,408,408,408,408,408,408,408,408,408,408,408,408,408,408,408,408,408,408,408,408,408,408,408,407,407,407,407,407,407,407,407,407,407,407,407,407,407,407,407,407,406,406,406,405,405,0,0,0,0,0,0,0,381,379,379,379,378,378,378,378,378,378,378,378,378,379,379,379,380,380,380,381,382,382,383,383,383,383,383,383,382,382,382,381,380,380,379,378,378,378,377,377,377,376,376,376,376,377,378,378,379,381,383,385,385,387,390,392,392,394,395,397,397,398,399,400,400,401,402,403,403,404,404,404,404,404,404,404,404,404,404,404,404,404,404,404,404,404,404,404,404,404,404,404,404,404,404,404,404,404,404,404,404,404,404,404,404,404,403,403,404,403,403,403,403,403,403,404,404,404,404,404,404,404,404,404,404,404,404,404,404,404,404,404,404,404,403,403,403,403,403,402,402,402,402,402,402,402,402,402,403,403,403,403,403,403,403,403,403,403,402,402,402,402,402,402,402,402,402,402,402,402,402,402,402,402,402,402,403,403,403,403,403,403,403,403,403,403,403,403,403,403,403,402,402,402,402,402,402,402,402,402,402,402,402,402,402,402,402,402,402,401,401,401,401,401,401,401,401,401,401,0,0,0,0,0,0,0,0,0,0,0,0,0,0,0,0,0,0,0,0,0,0,0,0,0,0,0,332,332,332,333,333,333,333,333,333,333,334,334,334,334,335,335,335,0,0,0,0,0,0,0,0,0,0,0,0,0,0,378,378,379,379,380,381,381,381,382,383,384,384,384,385,385,386,387,387,387,388,388,389,389,389,390,390,390,390,390,390,390,390,390,390,390,390,390,390,391,391,391,392,392,392,392,392,392,392,391,391,390,390,390,389,389,389,389,389,389,389,388,388,389,389,388,388,389,388,388,389,388,388,389,389,388,388,389,388,388,389,389,389,389,389,389,389,389,389,389,389,390,390,390,390,390,390,390,390,390,390,389,389,389,389,389,388,388,388,388,388,388,388,388,388,388,388,388,388,388,388,387,387,387,387,386,386,385,385,385,384,383,383,382,382,382,381,380,379,379,377,376,376,375,374,374,374,372,372,371,369,369,368,368,368,366,365,365,363,363,0,0,0,0,0,0,0,0,0,0,0,0,0,0,0,0,0,0,0,334,334,334,333,333,332,332,332,331,331,331,330,330,329,329,329,0,0,0,395,395,395,395,395,395,395,395,395,0,0,395,395,395,395,395,395,395,395,396,396,396,396,396,396,395,395,395,395,394,394,394,394,394,394,393,393,394,394,393,393,393,393,394,394,394,394,394,394,394,394,394,394,394,394,394,394,394,394,394,394,394,395,395,395,394,394,394,395,395,395,395,395,395,395,395,395,394,394,394,394,394,394,394,394,394,394,394,394,394,394,394,394,394,394,394,394,394,394,394,394,394,394,394,394,394,394,394,394,394,394,394,394,394,394,394,394,394,394,394,394,394,394,393,393,393,393,392,392,392,391,390,390,389,388,387,387,386,385,385,384,383,383,382,381,381,379,377,377,377,0
412,412,411,411,411,410,410,410,410,410,410,410,409,409,409,409,410,410,410,410,410,410,410,410,410,410,410,410,410,410,410,410,410,410,410,409,409,409,409,409,409,409,409,409,409,409,409,409,409,409,409,409,409,410,409,409,409,410,410,410,410,409,409,409,409,409,409,409,409,409,409,409,409,409,409,408,408,408,408,408,408,408,408,408,408,408,408,408,408,408,408,408,408,408,408,408,408,408,408,408,408,408,408,408,409,409,409,409,409,408,408,408,408,408,408,408,408,408,408,408,408,408,408,407,407,407,407,407,407,407,407,407,407,407,407,407,407,407,407,406,406,406,405,405,0,0,0,0,0,0,0,0,380,380,380,379,379,379,378,378,378,378,378,378,379,379,379,380,380,381,381,382,382,383,383,383,383,383,383,382,381,381,381,380,380,379,378,378,378,377,377,377,376,376,376,376,377,378,378,379,381,383,385,385,387,389,392,392,394,395,397,397,398,399,400,400,401,402,403,403,403,404,404,404,404,404,404,404,404,404,404,404,404,404,404,404,404,404,404,404,404,404,404,404,404,404,404,404,404,404,404,404,404,404,403,403,403,403,403,403,403,403,403,403,403,403,403,403,403,403,403,404,404,404,404,404,404,404,404,404,404,404,404,404,404,403,403,403,403,403,402,402,402,402,402,402,402,402,402,402,402,402,403,403,403,403,403,403,403,402,402,402,402,402,402,402,402,402,402,402,402,402,402,402,402,402,402,402,402,403,403,403,403,403,403,403,403,403,403,403,403,403,402,402,402,402,402,402,402,402,402,402,402,402,402,402,401,401,401,401,401,401,400,400,400,400,400,400,400,400,0,0,0,0,0,0,0,0,0,0,0,0,0,0,0,0,0,0,0,0,0,0,0,0,0,0,0,332,332,332,333,333,333,333,333,333,333,334,334,334,334,335,335,335,0,0,0,0,0,0,0,0,0,0,0,0,0,0,378,378,379,379,380,380,381,381,382,383,384,384,384,385,385,386,387,387,387,388,388,389,389,389,390,390,390,390,390,390,390,390,390,390,390,390,390,390,391,391,391,392,392,392,392,392,392,392,391,391,390,390,390,389,389,389,389,389,389,389,388,388,389,389,388,388,388,388,388,388,388,388,389,389,388,388,389,388,388,389,389,389,389,389,389,389,389,389,389,389,390,390,390,390,390,390,390,390,390,390,389,389,389,389,389,388,388,388,388,388,388,388,388,388,388,388,388,388,388,388,387,387,387,387,386,386,385,385,385,384,383,383,382,382,382,381,380,379,379,377,376,376,375,374,374,374,372,372,371,369,369,368,368,368,366,365,365,363,363,0,0,0,0,0,0,0,0,0,0,0,0,0,0,0,0,0,0,0,334,334,333,333,333,332,332,332,331,331,331,330,330,329,329,329,0,0,0,395,395,395,395,395,395,395,394,394,0,0,394,394,394,394,395,395,395,395,395,396,396,396,396,396,395,395,395,394,394,394,394,394,393,393,393,393,393,393,393,393,393,393,393,393,393,394,394,394,394,394,394,394,394,394,394,394,394,394,394,394,394,395,395,394,394,394,394,394,394,394,394,394,394,394,394,394,394,394,394,394,394,394,394,394,394,394,394,394,394,394,394,394,394,394,394,394,394,394,394,394,394,394,394,394,394,394,394,394,394,394,394,394,394,394,394,394,394,394,394,394,394,394,393,393,393,393,392,392,392,391,390,390,389,388,387,387,386,385,385,384,383,383,382,381,381,379,377,377,375,374
412,412,411,411,411,410,410,410,410,410,410,410,409,409,409,409,410,410,410,410,410,410,410,410,410,410,410,410,410,410,410,410,410,410,409,409,409,409,409,409,409,409,409,409,409,409,409,409,409,409,409,409,409,410,409,409,409,409,409,409,410,409,409,409,409,409,409,409,409,409,409,409,409,409,409,408,408,408,408,408,408,408,408,408,408,408,408,408,408,408,408,408,408,408,408,408,408,408,408,408,408,408,408,408,409,409,409,409,409,408,408,408,408,408,408,408,408,408,408,408,408,408,408,407,407,407,407,407,407,407,407,407,407,407,407,407,406,406,406,406,406,406,405,405,0,0,0,0,0,0,0,0,380,380,380,379,379,379,378,378,378,378,378,378,379,379,379,380,380,381,381,382,382,383,383,383,383,383,383,382,381,381,380,380,380,379,378,378,377,377,377,377,377,377,377,377,377,378,378,380,381,382,382,384,387,389,392,392,394,395,397,397,398,399,400,400,401,402,403,403,403,404,404,404,404,404,404,404,404,404,404,404,404,404,404,404,404,404,404,404,404,404,404,404,404,404,404,404,404,404,404,404,404,403,403,403,403,403,403,403,403,403,403,403,403,403,403,403,403,403,403,404,404,404,404,404,404,404,404,404,404,404,404,404,404,404,404,403,403,403,402,402,402,402,402,402,402,402,402,402,402,402,403,403,403,403,403,403,402,402,402,402,402,402,402,402,402,402,402,402,402,402,402,402,402,402,402,402,402,403,403,403,403,403,403,403,403,403,403,403,403,403,403,402,402,402,402,402,402,402,402,402,402,401,401,401,401,401,401,401,401,401,400,400,400,400,399,399,400,400,0,0,0,0,0,0,0,0,0,0,0,0,0,0,0,0,0,0,0,0,0,0,0,0,0,0,0,332,332,332,332,333,333,333,333,333,333,334,334,334,334,334,335,335,0,0,0,0,0,0,0,0,0,0,0,0,0,0,377,377,378,378,380,380,381,381,382,383,384,384,385,385,385,386,387,388,388,388,389,389,389,390,390,390,390,390,390,390,390,390,390,390,390,391,391,391,391,392,392,392,392,392,392,392,393,392,392,392,391,390,390,389,389,389,389,389,389,389,388,388,389,388,388,388,388,388,388,388,388,388,388,388,388,388,388,388,388,389,389,389,389,389,389,389,389,389,389,390,390,390,390,390,390,390,390,390,390,390,389,389,389,389,389,389,389,389,389,388,388,388,388,388,388,388,388,388,388,388,388,388,387,387,386,386,386,385,385,384,384,384,383,382,382,381,381,380,380,378,378,378,376,375,375,374,373,373,371,370,370,369,369,369,369,368,368,0,0,0,0,0,0,0,0,0,0,0,0,0,0,0,0,0,0,0,0,0,0,0,333,333,333,332,332,332,331,331,331,330,330,330,0,0,0,0,0,0,394,394,394,394,394,394,394,394,0,0,394,394,394,394,394,395,395,395,395,396,396,396,396,396,395,395,395,394,394,394,394,393,393,393,393,393,393,393,393,393,393,393,393,393,393,394,394,394,394,394,394,394,394,394,394,394,394,394,394,394,394,394,394,394,394,394,394,394,394,394,394,394,394,394,394,394,394,394,394,394,394,394,394,394,394,394,394,394,394,394,394,394,394,394,394,394,394,394,394,394,394,394,394,394,394,394,394,394,394,394,394,394,394,394,394,394,394,394,394,394,394,394,393,393,392,392,392,392,392,391,390,390,389,388,387,387,385,384,384,383,382,382,381,380,380,378,377,377,375,374
412,412,412,411,411,411,410,410,410,410,410,410,410,410,410,410,410,410,410,410,410,410,410,410,410,410,409,409,409,409,409,409,409,409,409,409,409,409,409,409,409,409,409,409,409,409,409,409,409,409,409,409,409,410,409,409,409,409,409,409,409,409,409,409,409,409,409,409,409,409,409,409,409,409,409,409,409,409,409,409,409,409,408,408,408,408,408,408,408,408,408,408,408,408,408,408,408,408,408,408,408,408,409,409,409,409,409,409,409,409,409,408,408,408,408,408,408,408,408,408,408,408,408,408,408,407,407,407,407,407,407,407,407,407,407,407,406,406,406,406,406,406,404,404,0,0,0,0,0,0,0,0,381,380,380,380,379,379,379,378,378,378,378,379,379,379,380,380,380,381,382,382,382,383,383,383,383,383,383,382,381,381,380,380,380,379,378,378,377,377,377,377,377,377,377,377,377,379,380,380,381,382,382,384,387,389,392,392,394,395,397,397,398,399,400,400,401,402,403,403,403,403,403,404,404,404,404,404,404,404,404,404,404,404,404,404,404,404,404,404,404,404,404,404,404,404,404,404,404,403,403,403,403,403,403,403,403,403,403,403,403,403,403,403,403,403,403,403,403,403,403,404,404,404,404,404,404,404,404,404,404,404,404,404,404,404,404,403,403,403,403,402,402,402,402,402,402,402,402,402,402,402,403,403,403,403,403,403,402,402,402,402,402,402,402,401,401,401,402,402,402,402,402,402,402,402,402,402,402,402,402,402,402,402,402,402,402,403,403,403,403,403,403,402,402,402,402,402,402,402,402,402,401,401,401,401,401,401,401,401,400,400,400,400,400,399,399,399,0,0,0,0,0,0,0,0,0,0,0,0,0,0,0,0,0,0,0,0,0,0,0,0,0,0,0,0,0,332,332,332,332,333,333,333,333,333,333,334,334,334,334,334,0,0,0,0,0,0,0,0,0,0,0,0,0,0,0,375,375,376,378,378,379,380,381,381,382,383,384,384,385,386,387,387,387,388,388,389,389,390,390,390,390,390,390,390,390,390,390,390,390,390,391,391,391,391,392,392,392,392,393,393,393,393,393,393,392,392,392,390,390,389,389,389,389,389,389,389,388,388,389,388,388,388,388,388,388,388,388,388,388,388,388,388,388,388,388,389,389,389,389,389,389,389,389,390,390,390,390,390,390,390,390,390,390,390,390,389,389,389,389,389,389,389,389,388,388,388,388,388,388,388,388,388,388,388,388,388,388,388,387,387,387,387,386,386,386,385,384,384,383,383,382,382,381,380,380,379,378,378,377,376,376,375,374,374,373,371,371,371,370,370,0,368,368,0,0,0,0,0,0,0,0,0,0,0,0,0,0,0,0,0,0,0,0,0,0,0,0,333,333,332,332,332,331,331,331,330,330,330,0,0,0,0,0,0,394,394,394,394,394,394,394,394,0,0,394,394,394,394,394,395,395,395,395,396,396,396,396,396,395,395,395,394,394,394,394,393,393,393,393,393,393,393,393,393,393,393,393,393,393,394,394,394,394,394,394,394,394,394,394,394,394,394,394,394,394,394,394,394,394,394,394,394,394,394,394,394,394,394,394,394,394,394,394,394,394,394,394,394,394,394,394,394,394,394,394,394,394,394,394,394,394,394,394,394,394,394,394,394,394,394,394,394,394,394,394,394,394,394,394,394,394,394,394,394,394,394,393,393,392,392,392,392,392,391,390,390,389,388,387,387,385,384,384,383,382,382,381,380,380,378,377,377,375,375
413,412,412,412,412,411,411,411,410,410,410,410,410,410,410,410,410,410,410,410,410,410,410,410,410,410,409,409,409,409,409,409,409,409,409,409,409,409,409,409,409,409,409,409,409,409,410,410,410,410,410,410,410,410,410,410,409,409,409,409,409,409,409,409,409,409,409,409,409,409,409,409,409,409,409,409,409,409,409,409,409,409,409,409,409,409,408,408,408,408,408,408,408,408,408,408,408,408,408,408,408,408,409,409,409,409,409,409,409,409,409,409,408,408,408,408,408,408,408,408,408,408,408,408,408,407,407,407,407,407,407,407,407,407,407,407,406,406,406,406,406,406,404,404,0,0,0,0,0,0,0,0,382,381,381,380,380,380,379,379,379,379,379,379,379,379,380,381,381,381,382,382,382,383,383,383,383,383,383,382,381,381,380,380,380,379,378,378,377,377,377,377,377,377,377,377,378,379,380,380,381,382,382,384,387,389,392,392,394,396,397,397,398,399,400,400,401,402,403,403,403,403,403,404,404,404,404,404,404,404,404,404,404,404,404,404,404,404,404,404,404,404,404,404,404,404,404,404,404,403,403,403,403,403,403,403,403,403,403,403,403,403,403,403,403,403,403,403,403,403,403,404,404,404,404,404,404,404,404,404,404,404,404,404,404,404,404,403,403,403,403,402,402,402,402,402,402,402,402,402,402,402,403,403,403,403,403,403,402,402,402,402,402,402,402,401,401,401,402,402,402,402,402,402,402,402,402,402,402,402,402,402,402,402,402,402,402,403,403,403,403,403,403,403,403,402,402,402,402,402,402,402,401,401,401,401,401,401,401,401,400,400,400,400,400,399,399,399,0,0,0,0,0,0,0,0,0,0,0,0,0,0,0,0,0,0,0,0,0,0,0,0,0,0,0,0,0,332,332,332,333,333,333,333,333,333,333,334,334,334,334,0,0,0,0,0,0,0,0,0,0,0,0,0,0,0,0,375,375,376,378,378,379,380,381,381,382,383,385,385,386,386,387,387,388,389,389,389,390,390,390,390,390,390,390,390,391,391,391,391,391,391,391,391,391,392,392,392,392,393,393,393,393,393,394,394,394,0,0,0,0,0,0,0,0,0,0,0,388,388,389,389,388,388,388,388,388,388,388,388,388,388,388,388,388,388,0,0,0,0,0,0,0,390,390,390,390,390,390,390,390,390,390,390,390,390,390,389,389,389,389,389,389,389,389,388,388,388,388,388,388,388,388,388,388,388,388,388,388,388,388,387,387,387,387,386,386,385,385,385,384,383,382,382,381,381,381,380,379,379,377,377,377,375,374,374,374,373,373,372,371,371,0,369,369,0,0,0,0,0,0,0,0,0,0,0,0,0,0,0,0,0,0,0,0,0,0,0,0,333,333,332,332,332,331,331,331,330,330,330,330,330,330,0,0,394,394,394,394,393,393,394,394,393,393,393,393,394,394,394,394,395,395,395,395,395,395,396,395,395,395,395,395,394,394,394,394,393,393,393,393,393,393,393,393,393,393,393,393,393,393,393,393,394,394,394,394,394,394,394,394,394,394,394,394,394,394,394,394,394,394,394,394,394,394,394,394,394,394,394,394,394,394,394,394,394,394,394,394,394,394,394,394,394,394,394,394,394,394,394,394,394,394,394,394,394,394,394,394,394,394,394,394,394,394,394,394,394,394,394,394,394,394,394,394,394,393,393,393,393,392,392,392,391,391,390,390,390,389,388,387,387,385,384,384,383,382,382,381,380,380,378,377,377,375,374
413,412,412,412,412,411,411,411,410,410,410,410,410,410,410,410,410,410,410,410,410,410,410,410,409,409,409,409,409,409,409,409,409,409,409,409,409,409,409,409,409,409,409,409,409,409,410,410,410,410,410,410,410,410,410,410,409,409,409,409,409,409,409,409,409,409,409,409,409,409,409,409,409,409,409,409,409,409,409,409,409,409,409,409,409,409,408,408,408,408,408,408,408,408,408,408,408,408,408,408,408,408,409,409,409,409,409,409,409,409,409,409,408,408,408,408,408,408,408,408,408,408,408,408,408,407,407,407,407,407,407,407,407,407,407,407,406,406,406,406,406,406,404,404,0,0,0,0,0,0,0,0,382,381,381,380,380,380,379,379,379,379,379,379,379,379,380,381,381,381,382,382,382,383,383,383,383,383,383,382,381,381,380,380,380,379,378,378,377,377,377,377,377,377,377,377,378,379,380,380,381,382,382,384,387,389,392,392,394,396,397,397,398,399,400,400,401,402,403,403,403,403,403,404,404,404,404,404,404,404,404,404,404,404,404,404,404,404,404,404,404,404,404,404,403,403,403,403,403,403,403,403,403,403,403,403,403,403,403,403,403,403,403,403,403,403,403,403,403,403,403,403,404,404,404,404,404,404,404,404,404,404,404,404,404,404,404,403,403,403,403,402,402,402,402,402,402,402,402,402,402,402,403,403,403,403,403,402,402,402,402,402,402,402,402,401,401,401,401,402,402,402,402,402,402,402,402,402,402,402,402,402,402,402,402,402,402,402,402,403,403,403,403,402,402,402,402,402,402,402,402,402,401,401,401,401,401,401,401,401,400,400,400,400,400,399,399,399,399,399,0,0,0,0,0,0,0,0,0,0,0,0,0,0,0,0,0,0,0,0,0,0,0,0,0,0,332,332,332,332,333,333,333,333,333,333,333,334,334,334,334,0,0,0,0,0,0,0,0,0,0,0,0,0,0,373,373,373,374,376,378,378,379,380,381,381,382,383,385,385,386,386,387,387,388,389,389,389,390,390,390,390,390,390,390,390,391,391,391,391,391,391,391,391,391,392,392,392,392,393,393,393,393,393,394,394,394,0,0,0,0,0,0,0,0,0,0,0,388,388,389,389,388,388,388,388,388,388,388,388,388,388,388,388,388,388,0,0,0,0,0,0,0,390,390,390,390,390,390,390,390,390,390,390,390,390,390,389,389,389,389,389,389,389,389,388,388,388,388,388,388,388,388,388,388,388,388,388,388,388,388,387,387,387,387,386,386,385,385,385,384,383,382,382,381,381,381,380,379,379,377,377,377,375,374,374,374,373,373,372,371,371,0,369,369,0,0,0,0,0,0,0,0,0,0,0,0,0,0,0,0,0,0,0,0,0,0,0,0,0,0,332,331,331,331,331,331,331,330,330,330,330,330,330,330,329,329,393,393,393,393,393,393,393,393,393,393,393,394,394,394,394,394,395,395,395,395,396,395,395,395,395,395,394,394,394,394,393,393,393,393,393,393,393,392,392,393,393,393,393,393,393,393,394,394,394,394,394,394,394,394,394,394,394,394,394,394,394,394,394,394,394,394,394,394,394,394,394,394,394,394,394,394,394,394,395,394,394,394,394,394,394,394,394,394,394,394,394,394,394,394,394,394,394,394,394,394,394,394,394,394,394,394,394,394,394,394,394,394,394,394,394,394,394,394,394,393,393,393,393,392,392,392,391,391,390,390,390,389,388,387,387,385,384,384,383,382,382,381,379,379,378,377,377,375,374
413,413,412,412,412,411,411,411,411,410,410,410,410,410,410,410,410,410,410,410,410,409,409,409,409,409,409,409,409,409,409,409,409,409,409,409,409,409,409,409,409,409,409,410,410,410,410,410,410,410,410,410,410,410,410,410,409,409,409,409,409,409,409,409,409,409,409,409,409,409,409,409,409,409,409,409,409,409,409,409,409,409,409,409,409,409,409,409,408,408,408,408,408,408,408,408,409,409,409,409,409,409,409,409,409,409,409,409,409,409,409,409,409,408,408,408,408,408,408,408,408,408,408,408,408,408,407,407,407,407,407,407,407,407,407,407,406,406,406,406,406,406,404,404,403,403,0,394,394,389,385,385,382,381,381,380,380,380,379,379,379,379,379,379,379,379,380,381,381,381,382,382,382,383,383,383,383,382,382,382,381,381,380,379,379,378,378,378,377,377,377,377,377,377,377,377,378,379,380,380,381,382,382,384,389,389,392,392,395,396,398,398,399,399,401,401,401,402,403,403,403,403,403,404,404,404,404,404,404,404,404,404,404,404,404,404,404,404,404,404,404,403,403,403,403,403,403,403,403,403,403,403,403,403,403,403,403,403,403,403,403,403,403,403,403,403,403,403,403,403,403,403,404,404,404,404,404,404,404,404,404,404,404,404,404,403,403,403,403,403,403,403,402,402,402,402,402,402,402,402,402,402,403,403,403,403,403,402,402,402,402,402,402,402,402,401,401,401,401,401,401,401,401,401,401,401,401,401,401,402,402,402,402,402,402,402,402,402,402,402,403,403,403,402,402,402,402,402,402,402,402,402,401,401,401,401,401,401,401,400,400,400,400,400,400,399,399,399,399,399,399,399,399,0,0,0,0,0,0,0,0,0,0,0,0,0,0,0,0,0,0,0,0,0,0,0,332,332,332,332,333,333,333,333,333,333,333,334,334,334,334,0,0,0,0,0,0,0,0,0,0,0,0,0,0,373,373,373,374,376,378,378,380,381,382,382,383,384,385,385,386,387,388,388,388,389,389,390,390,390,390,390,390,391,391,391,391,391,391,391,391,391,391,391,391,392,392,392,392,393,393,393,393,393,394,394,394,0,0,0,0,0,0,0,0,0,0,0,0,0,0,0,0,0,0,388,388,388,388,388,388,388,388,0,0,0,0,0,0,0,0,0,0,0,390,390,390,390,390,390,390,390,390,390,390,390,389,389,389,389,389,389,389,389,389,389,389,388,388,388,388,388,388,388,388,388,388,388,388,388,388,388,387,387,387,386,386,386,385,385,384,384,383,383,382,381,381,380,379,379,378,377,377,376,375,375,375,374,373,373,372,372,0,0,0,0,0,0,0,0,0,0,0,0,0,0,0,0,0,0,0,0,0,0,0,0,0,0,0,0,0,332,331,331,331,331,331,331,330,330,330,330,330,330,330,329,329,393,393,393,393,393,393,393,393,393,393,393,394,394,394,394,394,395,395,395,395,396,395,395,395,395,395,394,394,394,394,393,393,393,393,393,393,393,392,392,393,393,393,393,393,393,393,394,394,394,394,394,394,395,395,395,395,395,395,395,395,395,394,394,394,394,394,394,394,394,394,394,394,394,394,394,394,394,395,395,395,394,394,394,394,394,394,394,394,394,394,394,394,394,394,394,394,394,394,394,394,394,395,394,394,394,394,394,394,394,394,394,394,394,394,394,394,394,394,393,393,393,393,393,392,392,392,391,391,390,390,390,388,388,387,387,385,384,384,383,381,381,380,379,379,378,376,376,375,374
413,413,412,412,412,412,411,411,411,410,410,410,410,410,410,410,410,410,410,410,410,409,409,409,409,409,409,409,409,409,409,409,409,409,409,409,409,409,409,409,409,409,410,410,410,410,410,410,410,410,410,410,410,410,410,410,410,410,410,410,410,410,409,409,409,409,409,410,410,409,409,409,409,409,409,409,409,409,409,409,409,409,409,409,409,409,409,409,409,409,409,409,409,409,409,409,409,409,409,409,409,409,409,409,409,409,409,409,409,409,409,409,409,409,409,409,409,409,408,408,408,408,408,408,408,408,408,408,407,407,407,407,407,407,407,407,406,406,406,406,406,406,404,404,403,403,0,394,394,389,385,385,383,382,382,381,380,380,380,380,380,379,379,0,0,380,380,381,381,382,382,383,383,383,383,383,383,382,382,382,381,381,380,379,379,378,378,378,377,377,377,377,377,377,377,377,378,379,380,380,381,382,382,384,0,392,392,392,395,396,398,398,399,399,401,401,401,402,403,403,403,403,403,404,404,404,404,404,404,404,404,404,404,404,404,404,404,404,404,404,404,403,403,403,403,403,403,403,403,403,403,403,403,403,403,403,403,403,403,403,403,403,403,403,403,403,403,403,403,403,403,403,404,404,404,404,404,404,404,404,404,404,404,404,404,403,403,403,403,403,403,403,402,402,402,402,403,403,403,403,403,403,403,403,403,403,403,403,402,402,402,402,402,402,402,401,401,401,401,401,401,401,401,401,401,401,401,401,401,402,402,402,402,402,402,402,402,402,402,402,403,403,403,403,403,402,402,402,402,402,402,402,401,401,401,401,401,401,401,400,400,400,400,400,400,399,399,399,399,399,399,399,399,0,0,0,0,0,0,0,0,0,0,0,0,0,0,0,0,0,0,0,0,0,0,0,332,332,332,332,333,333,333,333,333,333,333,334,334,334,0,0,0,0,0,0,0,0,0,0,0,0,0,0,0,373,373,373,374,376,378,378,380,381,382,382,383,384,385,385,386,387,388,388,389,389,389,390,390,391,391,391,391,391,391,391,391,391,391,391,391,391,391,391,391,392,392,392,392,393,393,393,393,394,394,394,0,0,0,0,0,0,0,0,0,0,0,0,0,0,0,0,0,0,0,0,0,0,388,388,0,0,0,0,0,0,0,0,0,0,0,0,0,0,0,0,390,390,390,390,390,390,390,390,390,390,389,389,389,389,389,389,389,389,389,389,389,389,389,389,388,388,388,388,388,388,389,388,388,388,388,388,387,387,387,387,387,386,385,385,384,384,383,383,382,381,381,381,380,380,378,377,377,376,376,376,375,374,374,374,374,0,0,0,0,0,0,0,0,0,0,0,0,0,0,0,0,0,0,0,0,0,0,0,0,0,0,0,0,0,0,0,331,331,331,331,331,331,330,330,330,330,330,330,330,392,392,393,393,393,393,393,393,393,393,393,393,393,394,394,394,394,394,395,395,395,395,396,396,396,395,395,395,394,394,394,394,394,394,394,393,393,393,393,393,393,393,393,393,393,393,393,394,394,394,394,394,394,394,395,395,395,395,395,395,395,395,395,394,394,394,394,394,394,394,394,394,394,394,394,394,394,394,395,395,395,395,395,395,394,394,394,394,394,394,394,394,394,394,394,394,395,395,395,395,394,394,394,395,395,395,395,394,394,394,394,394,394,394,394,394,394,394,394,394,393,393,393,393,393,392,392,392,391,391,390,390,390,388,388,387,387,385,384,384,383,381,381,380,379,379,378,376,376,375,374
413,413,413,412,412,412,411,411,411,410,410,410,410,410,410,410,410,410,410,410,410,409,409,409,409,409,409,409,409,409,409,409,409,409,409,409,409,409,409,409,409,409,410,410,410,410,410,410,410,410,410,410,410,410,410,410,410,410,410,410,410,410,409,409,409,409,409,410,410,409,409,409,409,409,409,409,409,409,409,409,409,409,409,409,409,409,409,409,409,409,409,409,409,409,409,409,409,409,409,409,409,409,409,409,409,409,409,409,409,409,409,409,409,409,409,409,409,409,408,408,408,408,408,408,408,408,408,408,407,407,407,407,407,407,407,406,406,406,406,406,406,406,404,404,403,400,400,394,394,389,385,385,383,382,382,381,380,380,380,380,380,379,379,0,0,380,380,381,381,382,382,383,383,383,383,383,383,382,382,382,381,381,380,379,379,378,378,378,377,377,377,377,377,377,377,377,378,379,380,380,381,382,382,384,0,392,392,392,395,396,398,398,399,399,401,401,401,402,403,403,403,403,403,404,404,404,404,404,404,404,404,404,404,404,404,404,404,404,404,404,404,403,403,403,403,403,403,403,403,403,403,403,403,403,403,403,403,403,403,403,403,403,403,403,403,403,403,403,403,403,403,403,404,404,404,404,404,404,404,404,404,404,404,404,404,403,403,403,403,403,403,403,402,402,402,402,403,403,403,403,403,403,403,403,403,403,403,403,402,402,402,402,402,402,402,401,401,401,401,401,401,401,401,401,401,401,401,401,401,401,401,401,402,402,402,402,402,402,402,402,402,403,403,403,403,402,402,402,402,402,402,402,401,401,401,401,401,401,401,400,400,400,400,400,400,399,399,399,399,399,399,399,399,0,0,0,0,0,0,0,0,0,0,0,0,0,0,0,0,0,0,0,0,0,0,332,332,332,332,332,333,333,333,333,333,333,333,334,334,334,334,0,0,0,0,0,0,0,0,0,0,0,0,0,0,373,373,373,374,376,378,378,380,381,382,382,383,384,385,385,386,387,388,388,389,389,389,390,390,391,391,391,391,391,391,391,391,391,391,391,391,391,391,391,391,392,392,392,392,393,393,393,393,393,394,394,0,0,0,0,0,0,0,0,0,0,0,0,0,0,0,0,0,0,0,0,0,0,388,388,0,0,0,0,0,0,0,0,0,0,0,0,0,0,0,0,390,390,390,390,390,390,390,390,390,390,389,389,389,389,389,389,389,389,389,389,389,389,389,389,388,388,388,388,388,388,389,388,388,388,388,388,387,387,387,387,387,386,385,385,384,384,383,383,382,381,381,381,380,380,378,377,377,376,376,376,375,374,374,374,374,0,0,0,0,0,0,0,0,0,0,0,0,0,0,0,0,0,0,0,0,0,0,0,0,0,0,0,0,0,0,0,331,331,331,331,331,331,330,330,330,330,330,330,330,392,392,393,393,393,393,393,393,393,393,393,393,393,394,394,394,394,394,395,395,395,395,395,396,396,395,395,395,394,394,394,394,394,394,394,393,393,393,393,393,393,393,393,393,393,393,393,394,394,394,394,394,394,394,395,395,395,395,395,395,395,395,395,394,394,394,394,394,394,394,394,394,394,394,394,394,394,394,394,395,395,395,394,394,394,394,394,394,394,394,394,394,394,394,394,394,395,395,395,395,394,394,394,395,395,395,395,394,394,394,394,394,394,394,394,394,394,394,394,394,393,393,393,393,392,392,392,392,391,391,390,389,389,388,388,387,387,385,384,384,383,381,381,380,379,379,378,376,376,375,374
413,413,413,412,412,412,411,411,411,411,411,410,410,410,410,410,410,410,410,409,409,409,409,409,409,409,409,409,408,408,408,408,408,408,408,409,409,409,409,409,409,409,410,410,410,410,410,410,410,410,410,410,410,410,410,410,410,410,410,410,410,410,409,409,409,409,410,410,410,409,409,409,409,409,409,409,409,409,409,409,409,409,409,409,409,409,409,409,409,409,409,409,409,409,409,409,409,409,409,409,409,409,409,409,409,409,409,409,409,409,409,409,409,409,409,409,409,409,409,409,409,408,408,408,408,408,408,408,408,407,407,407,407,407,407,406,406,406,406,406,406,406,405,405,403,400,400,395,391,390,387,387,383,382,382,382,381,381,381,380,380,380,381,381,381,381,381,381,381,382,382,383,383,383,383,383,383,382,382,382,381,381,380,379,379,378,378,378,377,377,377,377,377,377,378,378,378,380,380,380,381,382,382,384,0,0,0,0,396,396,397,397,399,400,401,401,402,402,403,403,403,403,403,404,404,404,404,404,404,404,404,404,404,404,404,404,404,404,404,404,404,403,403,403,403,403,403,403,403,403,403,403,403,403,403,403,403,403,403,403,403,403,403,403,403,403,403,403,403,403,403,403,404,404,404,404,404,404,404,404,404,404,404,404,404,403,403,403,403,403,403,403,403,403,403,403,403,403,403,403,403,403,403,403,403,403,403,402,402,402,402,402,402,402,402,401,401,401,401,401,401,401,401,401,401,401,401,401,401,401,401,401,401,401,401,401,402,402,402,402,402,402,402,402,403,403,402,402,402,402,402,402,402,401,401,401,401,401,401,401,400,400,400,400,400,400,399,399,399,399,399,0,0,0,0,0,0,0,0,0,0,0,0,0,0,0,0,0,0,0,0,0,0,0,0,332,332,332,332,332,333,333,333,333,333,333,333,334,334,334,334,0,0,0,0,0,0,0,0,0,0,0,0,0,0,373,373,373,374,376,378,378,380,381,383,383,384,385,386,386,387,388,388,388,389,390,390,390,390,391,391,391,391,391,391,391,391,391,391,391,391,391,391,391,391,392,392,392,392,392,392,392,393,393,393,393,0,0,0,0,0,0,0,0,0,0,0,0,0,0,0,0,0,0,0,0,0,0,0,0,0,0,0,0,0,0,0,0,0,0,0,0,0,0,0,0,0,390,390,390,390,390,390,389,389,389,389,389,389,389,389,389,389,388,388,388,388,388,388,388,388,388,388,388,388,388,389,388,388,388,388,388,388,388,387,387,387,386,385,385,385,384,383,383,382,382,382,381,380,380,379,378,378,377,376,376,376,375,375,375,375,375,0,0,0,0,0,0,0,0,0,0,0,0,0,0,0,0,0,0,0,0,0,0,0,0,0,0,0,0,0,0,331,331,331,331,331,331,331,330,330,330,330,330,330,330,393,393,393,393,393,393,393,393,393,393,393,393,394,394,394,395,395,395,395,395,395,395,395,395,395,395,395,395,394,394,394,394,394,394,394,393,393,393,393,393,393,393,393,393,394,394,394,394,394,394,394,395,395,395,395,395,395,395,395,395,395,395,394,394,394,394,394,394,394,394,394,394,394,394,394,394,394,394,395,395,395,394,394,394,394,394,394,394,394,394,394,394,394,394,394,395,395,395,395,395,395,395,395,395,395,395,395,395,395,394,394,394,394,394,394,394,394,394,394,393,393,393,393,392,392,392,392,391,391,390,389,389,388,388,387,387,385,384,384,383,381,381,380,379,379,377,376,376,375,374
413,413,413,412,412,412,411,411,411,411,411,410,410,410,410,410,410,410,410,409,409,409,409,409,409,409,409,409,408,408,408,408,408,408,408,408,409,409,409,409,409,409,410,410,410,410,410,410,410,410,410,410,410,410,410,410,410,410,410,410,410,410,409,409,409,409,410,410,410,409,409,409,409,409,409,409,409,409,409,409,409,409,409,409,409,409,409,409,409,409,409,409,409,409,409,409,409,409,409,409,409,409,410,410,410,410,410,410,409,409,410,409,409,409,409,409,409,409,409,409,409,409,408,408,408,408,408,408,408,407,407,407,407,407,407,407,407,407,406,406,406,406,404,404,403,403,0,396,391,391,387,387,384,383,383,382,382,382,381,381,381,381,381,381,381,381,381,381,381,382,382,383,383,383,383,383,383,382,382,382,381,381,380,379,379,378,378,378,378,378,378,378,378,378,378,378,378,380,380,380,381,382,382,384,0,0,0,0,396,396,397,397,399,400,401,401,402,402,403,403,403,404,404,404,404,404,404,404,404,404,404,404,404,404,404,404,404,404,404,404,404,404,404,403,403,403,403,403,403,403,403,403,403,403,403,403,403,403,403,403,403,403,403,403,403,403,403,403,403,403,403,404,404,404,404,404,404,404,404,404,404,404,404,404,403,403,403,403,403,403,403,403,403,403,403,403,403,403,403,403,403,403,403,403,403,403,403,402,402,402,402,402,402,402,402,401,401,401,401,401,401,401,401,401,401,401,401,401,401,401,401,401,401,401,401,401,401,402,402,402,402,402,402,402,403,403,402,402,402,402,402,402,402,401,401,401,401,401,401,401,400,400,400,400,400,400,399,399,399,399,399,0,0,0,0,0,0,0,0,0,0,0,0,0,0,0,0,0,0,0,0,0,0,0,0,332,332,332,332,332,333,333,333,333,333,333,333,334,334,334,334,0,0,0,0,0,0,0,0,0,0,0,0,0,0,0,0,374,374,376,378,378,380,383,383,383,384,385,387,387,387,388,389,389,389,390,390,390,391,391,391,391,391,391,391,391,391,391,391,391,391,391,391,391,391,391,392,392,392,392,392,392,392,392,392,392,392,0,0,0,0,0,0,0,0,0,0,0,0,0,0,0,387,387,387,387,0,0,0,0,0,0,0,0,0,0,0,0,0,0,0,0,0,0,0,0,0,390,390,390,390,390,390,389,389,389,389,389,389,389,389,389,389,388,388,388,388,388,388,388,388,388,388,388,388,388,388,388,388,388,388,388,388,388,387,387,387,386,386,385,385,384,383,383,383,382,382,381,380,380,379,378,378,377,376,376,376,376,376,0,375,375,0,0,0,0,0,0,0,0,0,0,0,0,0,0,0,0,0,0,0,0,0,0,0,0,0,0,0,0,0,0,0,0,331,331,331,331,331,330,330,330,330,330,330,330,393,393,393,393,393,393,393,393,393,393,394,394,394,394,394,395,395,395,395,395,395,395,395,395,395,395,395,395,395,395,395,394,394,394,394,394,394,394,394,394,394,394,394,394,394,394,394,394,394,394,394,395,395,395,395,395,395,395,395,395,395,395,394,394,394,394,394,394,394,394,394,394,394,394,394,394,394,395,395,395,395,394,394,394,394,394,394,394,394,394,394,394,394,395,395,395,395,395,395,395,395,395,395,395,395,395,395,395,395,395,394,394,394,394,394,394,394,394,394,393,393,393,393,392,392,392,392,391,391,390,389,389,388,388,387,387,386,384,384,383,382,382,380,379,379,377,376,376,375,374
413,413,413,412,412,412,411,411,411,411,411,411,410,410,410,410,410,410,410,409,409,409,409,409,409,409,409,409,408,408,408,408,408,408,408,408,409,409,409,409,409,409,410,410,410,410,410,410,410,410,410,410,410,410,410,410,410,410,410,410,410,410,409,409,409,409,410,410,410,409,409,409,409,409,409,409,409,409,409,409,409,409,409,409,409,409,409,409,409,409,409,409,409,409,409,409,409,410,410,410,410,410,410,410,410,410,410,410,410,410,410,410,410,410,410,409,409,409,409,409,409,409,409,408,408,408,408,408,408,408,408,407,407,407,407,407,407,407,406,406,406,406,404,404,0,0,0,0,0,0,0,0,0,384,384,383,382,382,382,382,381,381,381,381,381,381,381,382,382,382,382,383,383,383,383,383,383,382,382,382,381,381,380,379,379,379,378,378,378,378,378,378,378,378,378,378,379,380,380,380,381,382,382,384,0,0,0,0,396,396,397,397,399,400,401,401,402,403,403,403,404,404,404,404,404,404,404,404,404,404,404,404,404,404,404,404,404,404,404,404,404,404,404,403,403,403,403,403,403,403,403,403,403,403,403,403,403,403,403,403,403,403,403,403,403,403,403,403,403,403,403,404,404,404,404,404,404,404,404,404,404,404,404,404,403,403,403,403,403,403,403,403,403,403,403,403,403,403,403,403,403,403,403,403,403,403,403,403,403,402,402,402,402,402,402,401,401,401,401,401,401,401,401,401,401,401,401,401,401,401,401,401,401,401,401,401,401,402,402,402,402,402,402,402,403,403,403,403,403,402,402,402,402,402,402,401,401,401,401,401,401,401,400,400,400,400,400,400,0,0,0,0,0,0,0,0,0,0,0,0,0,0,0,0,0,0,0,0,0,0,0,0,0,0,0,333,333,333,333,333,333,333,333,333,334,334,334,334,334,334,335,0,0,0,0,0,0,0,0,0,0,0,0,0,0,0,0,0,0,0,0,0,0,0,385,385,385,386,387,387,388,389,389,389,390,390,390,390,391,391,391,391,391,391,391,391,391,391,391,391,391,391,391,391,391,391,392,392,392,392,392,392,392,392,392,392,392,0,0,0,0,0,0,0,0,0,0,0,0,0,0,0,387,387,387,387,0,0,0,0,0,0,0,0,0,0,0,0,0,0,0,0,0,0,0,0,0,390,390,390,390,390,390,389,389,389,389,389,389,389,389,389,389,388,388,388,388,388,388,388,388,388,389,389,389,388,388,388,388,388,388,388,388,388,387,387,387,386,386,385,385,384,383,383,383,382,382,381,380,380,379,378,378,377,376,376,376,376,376,376,375,375,0,0,0,0,0,0,0,0,0,0,0,0,0,0,0,0,0,0,0,0,0,0,0,0,0,0,0,0,0,0,0,0,331,331,331,331,331,330,330,330,330,330,330,330,330,393,393,393,393,393,393,393,393,393,394,394,394,394,394,395,395,395,395,395,395,395,395,395,395,395,395,395,395,395,395,394,394,394,394,394,394,394,394,394,394,394,394,394,394,394,394,394,394,394,394,395,395,395,395,395,395,395,395,395,395,395,394,394,394,394,394,394,394,394,394,394,394,394,394,394,394,395,395,395,395,394,394,394,394,394,394,394,394,394,394,394,394,395,395,395,395,395,395,395,395,395,395,395,395,395,395,395,395,395,394,394,394,394,394,394,394,394,394,393,393,393,393,392,392,392,392,391,391,390,389,389,388,388,387,387,386,384,384,383,382,382,380,378,378,377,375,375,374,373
413,413,412,412,412,412,411,411,411,411,411,411,410,410,410,410,410,410,410,409,409,409,409,409,409,409,409,408,408,408,408,408,408,408,408,408,409,409,409,409,409,409,410,410,410,410,410,410,410,410,410,410,410,410,410,410,410,410,410,410,410,410,409,409,409,409,409,409,409,409,409,409,409,409,409,409,409,409,409,409,409,409,409,409,409,409,409,409,409,409,409,409,409,409,409,409,409,410,410,410,410,410,410,410,410,410,410,410,410,410,410,410,410,410,410,409,409,409,409,409,409,409,409,408,408,408,408,408,408,408,408,407,407,407,407,407,407,407,406,406,406,405,403,403,401,401,0,0,0,0,0,0,0,384,384,383,382,382,382,381,381,381,381,381,381,381,381,382,382,382,382,383,383,383,383,383,383,382,382,382,381,381,380,379,379,379,378,378,378,378,378,378,378,378,378,378,379,380,380,380,381,382,382,383,386,388,390,390,393,395,397,397,399,400,401,401,402,403,403,403,404,404,404,404,404,404,404,404,404,404,404,404,404,404,404,404,404,404,404,404,404,404,404,403,403,403,403,403,403,403,403,403,403,403,403,403,403,403,403,403,403,403,403,403,403,403,403,403,403,403,403,404,404,404,404,404,404,404,404,404,404,404,403,403,403,403,403,403,403,403,403,403,403,403,403,403,403,403,403,403,403,403,403,403,403,403,403,403,403,402,402,402,402,402,402,401,401,401,401,401,401,401,401,401,401,401,401,401,401,401,401,401,401,401,401,401,401,402,402,402,402,402,402,402,403,403,403,403,403,402,402,402,402,402,402,401,401,401,401,401,401,401,400,400,400,400,400,400,0,0,0,0,0,0,0,0,0,0,0,0,0,0,0,0,0,0,0,0,0,0,0,0,0,0,0,333,333,333,333,333,333,333,333,333,334,334,334,334,334,334,335,0,0,0,0,0,0,0,0,0,0,0,0,0,0,0,0,0,0,0,0,0,0,0,385,385,385,386,387,387,388,389,389,389,390,390,390,390,391,391,391,391,391,391,391,391,391,391,391,391,391,391,391,391,391,391,391,392,392,392,392,391,391,392,392,392,391,391,391,0,0,0,0,0,0,0,0,0,0,0,0,387,387,387,387,387,388,388,388,388,388,388,388,389,0,0,0,0,0,0,0,0,0,0,0,0,390,390,390,390,389,389,389,389,389,389,389,389,389,389,388,388,388,388,388,388,388,388,388,388,388,388,388,388,388,388,388,388,388,388,388,388,387,387,387,387,387,386,386,385,385,384,383,383,383,382,382,381,380,380,379,378,378,377,377,376,376,376,376,376,376,0,0,0,0,0,0,0,0,0,0,0,0,0,0,0,0,0,0,0,0,0,0,0,0,0,0,0,0,0,0,0,332,332,331,331,331,331,331,330,330,330,330,330,330,330,330,393,393,393,393,393,393,394,394,394,394,394,394,394,395,395,395,395,395,395,395,395,395,395,395,395,395,395,395,395,395,395,394,394,394,394,394,394,394,394,394,394,394,394,394,394,394,394,394,394,394,394,394,395,395,395,395,395,395,395,395,395,395,394,394,394,394,394,394,394,394,395,395,395,395,395,395,395,395,395,395,395,395,395,394,394,394,394,394,394,394,394,394,394,394,395,395,395,395,395,395,395,395,395,395,395,395,395,395,395,395,395,394,394,394,394,394,394,394,393,393,393,393,392,392,392,392,391,391,390,390,390,389,388,387,387,386,385,385,383,382,382,380,378,378,376,375,375,373,372
413,413,412,412,412,412,412,412,411,411,411,411,410,410,410,410,410,410,410,409,409,409,409,409,409,409,409,408,408,408,408,408,408,408,408,409,409,409,409,409,409,409,410,410,410,410,410,410,410,410,410,410,410,410,410,410,410,410,409,409,409,409,409,409,409,409,409,409,409,409,409,409,409,409,409,409,409,409,409,409,409,409,409,409,409,409,409,409,409,409,409,409,409,409,409,409,409,409,409,410,410,410,410,410,410,410,410,410,410,410,410,410,410,410,410,409,409,409,409,409,409,409,409,409,409,409,408,408,408,408,408,408,407,407,407,407,406,406,406,405,405,404,402,402,401,401,0,0,0,0,0,0,0,384,384,383,383,383,382,381,381,381,381,381,381,381,381,381,381,382,382,383,383,383,383,383,383,382,382,382,381,381,380,380,380,379,378,378,378,378,378,378,378,378,378,378,379,379,379,380,380,382,382,383,385,387,387,390,392,394,396,396,398,400,401,401,402,403,403,403,404,404,404,404,404,405,405,404,404,404,404,404,404,404,404,404,404,404,404,404,404,404,404,404,404,404,403,403,403,403,403,403,403,403,403,403,403,403,403,403,403,403,403,403,403,403,403,403,403,403,403,404,404,404,404,404,404,404,404,404,404,404,403,403,403,403,403,403,403,403,403,403,403,403,403,403,403,403,403,403,403,403,403,403,403,403,403,403,403,402,402,402,402,402,402,402,402,402,401,401,401,401,401,401,401,401,401,401,401,401,401,401,401,401,402,401,401,402,402,402,402,402,402,403,403,403,403,403,403,403,402,402,402,402,402,402,402,401,401,401,401,401,401,401,401,400,400,0,0,0,0,0,0,0,0,0,0,0,0,0,0,0,0,0,0,0,0,0,0,0,0,0,0,0,0,333,333,333,333,333,333,333,333,333,334,334,334,334,334,334,335,335,0,0,0,0,0,0,0,0,0,0,0,0,0,0,0,0,0,0,0,0,0,0,388,388,387,387,388,388,388,389,390,390,390,390,390,390,391,391,391,391,391,391,391,391,391,391,391,391,391,391,391,391,391,391,391,391,391,391,391,391,391,391,391,391,390,390,390,390,390,390,390,0,0,0,0,0,0,0,0,387,387,387,387,387,388,388,388,388,388,388,388,389,389,389,0,0,0,0,0,0,0,0,389,389,389,389,389,389,389,389,389,389,389,389,389,389,388,388,388,388,388,388,388,388,388,388,388,388,388,388,388,388,388,388,388,388,388,388,388,388,387,387,387,387,387,387,386,385,385,384,384,384,383,382,382,381,380,380,379,378,378,377,376,376,376,376,376,376,376,0,0,0,0,0,0,0,0,0,0,0,0,0,0,0,0,0,0,0,0,0,0,0,0,0,0,0,0,0,0,0,332,332,331,331,331,331,331,331,331,330,330,330,330,330,330,330,330,394,394,394,394,394,395,395,395,395,395,395,395,395,395,395,395,395,395,395,395,396,396,396,396,395,395,395,396,395,395,395,395,394,394,394,394,394,394,394,394,394,394,394,394,394,394,394,394,394,394,394,394,394,395,395,395,395,395,395,395,395,395,395,394,394,394,394,395,395,395,395,395,395,395,395,395,395,395,395,395,395,395,394,394,394,394,394,394,394,394,394,394,395,395,395,395,395,395,395,395,395,395,395,395,395,395,395,395,395,394,394,394,394,394,394,394,393,393,393,393,392,392,392,392,391,391,390,390,390,389,388,387,387,387,385,385,384,382,382,380,378,378,376,374,374,373,371
413,413,412,412,412,412,412,412,411,411,411,411,410,410,410,410,410,410,410,409,409,409,409,409,409,409,409,409,409,408,408,408,408,409,409,409,409,409,409,409,410,410,410,410,410,410,410,410,410,410,410,410,410,410,410,410,410,410,409,409,409,409,409,409,409,409,409,409,409,409,409,409,409,409,409,409,409,409,409,409,409,409,409,409,409,409,409,409,409,409,409,409,409,409,409,409,409,409,409,410,410,410,410,410,410,410,410,410,410,410,410,410,410,410,410,409,409,409,409,409,409,409,409,409,409,409,408,408,408,408,408,408,407,407,407,407,406,406,406,405,405,404,402,402,401,401,0,0,0,0,0,0,0,384,384,383,383,383,382,381,381,381,381,381,381,381,381,381,381,382,382,383,383,383,383,383,383,382,382,382,381,381,381,380,380,379,379,379,379,378,378,378,378,378,378,378,379,379,379,380,380,382,382,383,385,387,387,390,392,394,396,396,398,400,401,401,402,403,404,404,404,405,405,405,405,405,405,405,405,405,405,405,405,405,404,404,404,404,404,404,404,404,404,404,404,404,404,404,404,404,404,404,404,404,404,404,404,404,403,403,403,403,403,403,403,403,403,403,404,404,404,404,404,404,404,404,404,404,404,404,404,404,403,403,403,403,403,403,403,403,403,403,403,403,403,403,403,403,404,404,404,404,403,403,403,403,403,403,403,402,402,402,402,402,402,402,402,402,402,402,402,402,402,402,401,401,401,401,401,401,401,401,402,402,402,402,402,402,402,402,402,402,402,403,403,403,403,403,403,403,403,403,402,402,402,402,402,402,402,402,401,401,401,401,401,401,0,0,0,0,0,0,0,0,0,0,0,0,0,0,0,0,0,0,0,0,0,0,0,0,0,0,0,0,0,0,333,333,333,333,333,333,333,334,334,334,334,334,334,334,335,335,0,0,0,0,0,0,0,0,0,0,0,0,0,0,0,0,0,0,0,0,0,0,388,388,388,388,389,389,389,390,390,390,390,390,391,391,391,391,391,391,391,391,391,391,391,391,391,391,391,391,391,391,391,391,391,391,391,391,391,391,391,391,391,391,390,390,390,390,390,390,390,0,0,0,0,0,0,0,0,387,387,387,388,388,388,388,388,388,388,389,389,389,389,389,0,0,0,0,0,0,0,0,389,389,389,389,389,389,389,389,389,389,389,389,389,389,388,388,388,388,388,388,388,388,388,388,388,388,388,388,388,388,388,388,388,388,388,388,388,388,387,387,387,387,387,387,386,385,385,385,384,384,383,382,382,381,380,380,379,378,378,378,376,376,376,376,376,376,376,0,0,0,0,0,0,0,0,0,0,0,0,0,0,0,0,0,0,0,0,0,0,0,0,0,0,0,0,0,0,0,332,332,331,331,331,331,331,331,331,330,330,330,330,330,330,330,330,394,395,395,395,395,395,395,395,396,396,396,396,396,396,396,396,396,395,395,395,396,396,396,396,395,395,395,396,395,395,395,395,395,395,395,395,395,395,394,394,394,394,394,394,394,394,394,394,394,394,394,394,394,395,395,395,395,395,395,395,395,395,395,395,395,395,395,395,395,395,395,395,395,395,395,395,395,395,395,395,395,395,395,395,394,394,394,394,394,395,395,395,395,395,395,395,395,395,395,395,395,395,395,395,395,395,395,395,395,394,394,394,394,394,394,394,393,393,393,393,392,392,392,392,391,391,390,390,390,389,388,388,388,387,386,386,385,385,0,0,0,0,376,374,374,373,371
413,413,412,412,412,412,412,412,411,411,411,411,410,410,410,410,410,410,410,409,409,409,409,409,409,409,409,409,409,408,408,408,408,409,409,409,409,409,409,409,410,410,410,410,410,410,410,410,410,410,410,410,410,410,410,409,409,409,409,409,409,409,409,409,409,409,409,409,409,409,409,409,409,409,409,409,409,409,409,409,409,409,409,409,409,409,409,409,409,409,409,409,409,409,409,409,409,409,409,410,410,410,410,410,410,410,410,410,410,410,410,410,410,410,410,409,409,409,409,409,409,409,409,409,409,409,408,408,408,408,408,408,407,407,407,407,406,406,405,404,404,403,401,401,399,399,0,0,0,0,387,387,385,384,384,383,382,382,382,381,381,381,380,380,381,381,381,381,381,382,382,383,383,383,383,383,382,382,382,382,381,381,381,380,380,379,379,379,379,378,378,378,378,378,378,378,378,379,379,380,380,381,381,383,385,387,387,389,392,394,396,396,398,399,401,401,402,403,404,404,404,405,405,405,405,405,405,405,405,405,405,404,404,404,404,404,404,404,404,404,404,404,404,404,404,404,404,404,404,404,404,404,404,404,404,404,404,404,403,403,403,403,403,403,403,403,403,403,404,404,404,404,404,404,404,404,404,404,404,404,404,404,403,403,403,403,403,403,403,403,403,403,403,403,403,403,403,403,404,404,404,404,403,403,403,403,403,403,403,402,402,402,402,402,402,402,402,402,402,402,402,402,402,402,401,401,401,401,401,401,401,401,402,402,402,402,402,402,402,402,402,402,402,403,403,403,403,403,403,403,403,403,402,402,402,402,402,402,402,402,401,401,401,401,401,401,0,0,0,0,0,0,0,0,0,0,0,0,0,0,0,0,0,0,0,0,0,0,0,0,0,0,0,0,0,0,333,333,333,333,333,333,333,333,334,334,334,334,334,334,335,335,0,0,0,0,0,0,0,0,0,0,0,0,0,0,0,0,0,0,0,0,0,0,388,388,388,388,389,389,389,390,390,390,390,390,391,391,391,391,391,391,391,391,391,391,391,391,391,391,391,391,391,391,391,391,391,391,391,391,391,391,390,390,390,390,390,390,390,390,390,390,390,390,0,0,388,388,387,387,387,387,387,387,388,388,388,388,388,388,388,389,389,389,389,389,389,389,0,389,389,389,389,389,389,389,389,389,389,389,389,389,389,389,389,389,389,389,388,388,388,388,388,388,388,388,388,388,388,388,388,388,388,388,388,388,388,388,388,388,388,388,387,387,387,387,387,387,386,385,385,385,384,384,383,382,382,381,380,380,379,378,378,377,376,376,376,376,376,376,375,375,0,0,0,0,0,0,0,0,0,0,0,0,0,0,0,0,0,0,0,0,0,0,0,0,0,0,0,0,0,0,332,332,331,331,331,331,331,331,331,330,330,330,330,330,330,330,330,394,395,395,395,395,395,395,395,396,396,396,396,396,396,396,396,396,395,395,395,395,395,395,395,395,395,395,396,395,395,395,395,395,395,395,395,395,395,394,394,394,394,394,394,394,394,394,394,394,394,394,394,394,395,395,395,395,395,395,395,395,395,395,395,395,395,395,395,395,395,395,395,395,395,395,395,395,395,395,395,395,395,395,395,394,394,394,394,394,395,395,395,395,395,395,395,395,395,395,395,395,395,395,395,395,395,395,395,395,394,394,394,394,394,394,394,393,393,393,393,392,392,392,392,391,391,390,390,390,389,388,388,388,387,386,386,385,385,0,0,0,0,376,374,374,373,371
413,412,412,412,412,412,411,411,411,411,411,411,410,410,410,410,410,410,410,409,409,409,409,409,409,409,409,409,409,409,409,409,409,409,409,409,409,409,409,409,410,410,410,410,410,410,409,409,409,409,409,409,409,409,409,409,409,409,409,409,409,409,409,409,409,409,409,409,409,409,409,409,409,409,409,409,409,409,409,409,409,409,409,409,409,409,409,409,409,409,409,409,409,409,409,409,409,409,409,410,410,410,410,410,410,409,409,409,409,409,409,409,410,410,410,409,409,409,409,409,409,409,409,409,409,409,408,408,408,408,408,408,407,407,407,406,405,405,405,403,403,402,400,400,398,398,0,393,393,390,387,387,385,384,384,383,382,382,381,381,381,380,380,380,381,381,381,381,381,382,382,383,383,383,383,383,382,382,382,382,381,381,381,380,380,379,379,379,379,378,378,378,378,378,378,378,378,379,379,379,380,381,381,383,385,387,387,389,391,393,395,395,397,399,400,400,402,403,404,404,404,405,405,405,405,405,405,405,405,405,405,404,404,404,404,404,404,404,404,404,404,404,404,404,404,404,404,404,404,404,404,404,404,404,404,404,404,404,404,404,404,404,404,403,403,404,404,404,404,404,404,404,404,404,404,404,404,404,403,403,403,403,403,403,403,403,403,403,403,403,403,403,403,403,403,404,404,404,404,404,404,404,404,404,403,403,403,403,403,403,403,402,402,402,402,402,402,402,402,402,402,402,402,402,402,402,402,402,402,402,402,402,402,402,402,402,402,402,402,402,402,402,402,403,403,403,403,403,403,403,403,403,403,403,403,402,402,402,402,402,402,402,402,402,402,402,402,0,0,0,0,0,0,0,0,0,0,0,0,0,0,0,0,0,0,0,0,0,0,0,0,0,0,0,0,0,333,333,333,333,333,333,333,333,334,334,334,334,334,334,335,335,0,0,0,0,0,0,0,0,0,0,0,0,0,0,0,0,0,0,0,0,0,0,0,0,389,389,390,390,390,390,390,390,390,391,391,391,391,391,391,391,391,391,391,391,391,391,391,391,391,391,391,391,391,391,391,391,391,391,391,391,390,390,390,390,390,390,390,390,390,390,389,389,390,389,388,388,387,387,387,387,387,387,388,388,388,388,388,388,388,389,389,389,389,389,389,388,388,388,388,389,389,389,389,389,389,389,389,389,389,389,389,389,389,389,389,389,388,388,388,388,388,388,388,388,388,388,388,388,388,388,388,389,389,388,388,388,388,388,388,388,387,387,387,387,387,387,386,385,385,385,384,384,383,382,382,381,380,380,379,378,378,377,377,376,376,376,376,376,375,375,0,0,0,0,0,0,0,0,0,0,0,0,0,0,0,0,0,0,0,0,0,0,0,0,0,0,0,0,0,0,332,332,331,331,331,331,331,331,331,330,330,330,330,330,330,330,330,395,395,395,395,396,396,396,396,396,396,396,396,396,396,396,396,396,396,395,395,395,395,395,395,395,395,395,396,396,395,395,395,395,395,395,395,395,395,395,394,394,394,394,394,394,394,394,394,394,394,394,394,394,394,395,395,395,395,395,395,395,395,395,395,395,395,395,395,395,395,395,395,395,395,395,395,395,395,395,395,395,395,395,395,395,395,395,395,395,395,395,395,395,395,395,395,395,395,395,395,395,395,395,395,395,395,395,395,395,394,394,394,394,394,394,394,394,393,393,393,392,392,392,392,391,391,391,390,390,389,389,388,388,387,387,387,387,0,0,0,0,0,0,0,0,373,371
413,412,412,412,412,412,411,411,411,411,411,411,410,410,410,410,410,410,410,410,410,409,409,409,409,409,409,409,409,409,409,409,409,409,409,409,409,409,409,409,410,410,410,410,409,409,409,409,409,409,409,409,409,409,409,409,409,409,409,409,409,409,409,409,409,409,408,408,408,408,408,408,408,408,408,408,409,409,409,409,409,409,409,409,409,409,409,409,409,409,409,409,409,409,409,409,409,409,409,409,409,409,409,409,409,409,409,409,409,409,409,409,409,409,409,409,409,409,409,409,409,409,409,409,409,408,408,408,408,408,408,408,407,407,407,406,405,405,404,403,403,401,399,399,398,394,394,392,392,389,387,387,385,384,384,382,382,382,381,381,381,380,380,380,380,380,381,381,381,382,382,383,383,383,383,383,382,382,382,382,381,381,381,380,380,379,379,379,379,379,378,378,378,378,378,378,378,378,378,379,380,381,381,383,384,386,386,388,390,393,395,395,397,399,400,400,402,403,404,404,404,405,405,405,405,405,405,405,405,405,405,405,405,405,404,404,404,404,404,404,404,404,404,404,404,404,404,404,404,404,404,404,404,404,404,404,404,404,404,404,404,404,404,404,404,404,404,404,404,404,404,404,404,404,404,404,404,404,403,403,403,403,403,403,403,403,403,403,403,403,403,403,403,403,403,404,404,404,404,404,404,404,404,404,404,403,403,403,403,403,403,403,403,403,403,402,402,402,402,402,402,402,402,402,402,402,402,402,402,402,402,402,402,402,402,402,402,402,402,402,402,402,402,403,403,403,403,403,403,403,403,403,403,403,403,402,402,402,402,402,402,402,402,402,402,402,402,403,0,0,0,0,0,0,0,0,0,0,0,0,0,0,0,0,0,0,0,0,0,0,0,0,0,0,0,0,333,333,333,333,333,333,333,334,334,334,334,334,335,335,335,335,0,0,0,0,0,0,0,0,0,0,0,0,0,0,0,0,0,0,0,0,0,0,0,0,390,390,390,390,390,390,390,390,391,391,391,391,391,391,391,391,391,391,391,391,391,391,391,391,391,391,391,391,391,391,391,391,391,391,391,391,390,390,390,390,390,390,390,390,390,390,389,389,390,389,389,389,388,387,387,387,387,388,388,388,388,388,388,388,389,389,389,389,389,389,389,388,388,388,388,389,389,389,389,389,389,389,389,389,389,389,389,389,389,389,389,389,388,388,388,388,388,388,388,388,388,388,388,389,389,389,389,389,389,388,388,388,388,388,388,388,387,387,387,387,387,387,386,385,385,385,384,384,383,382,382,382,380,380,380,378,378,0,377,376,376,376,376,376,375,375,0,0,0,0,0,0,0,0,0,0,0,0,0,0,0,0,0,0,0,0,0,0,0,0,0,0,0,0,0,0,332,332,332,331,331,331,331,331,331,330,330,330,330,330,330,0,0,396,396,396,396,396,396,396,396,396,396,396,396,396,396,396,396,396,396,395,395,395,395,395,395,395,395,396,396,396,395,395,395,395,395,395,395,395,395,395,394,394,394,394,394,394,394,394,394,394,394,394,394,394,394,395,395,395,395,395,395,395,395,395,395,395,395,395,395,395,395,395,395,395,395,395,395,395,395,395,395,395,395,395,395,395,395,395,395,395,395,395,395,395,395,395,395,395,395,395,395,395,395,395,395,395,395,395,395,395,394,394,394,394,394,394,394,394,393,393,393,393,392,392,392,391,391,391,390,390,389,389,388,388,388,387,387,387,0,0,0,0,0,0,0,0,373,371
413,412,412,412,412,412,411,411,411,411,411,411,410,410,410,410,410,410,410,410,410,410,410,410,410,409,409,409,409,409,409,409,409,409,409,409,409,409,409,410,410,410,410,410,409,409,409,409,409,409,409,409,409,409,409,409,409,409,409,409,409,409,409,409,409,409,408,408,408,408,408,408,408,408,408,408,409,409,409,409,409,409,409,409,409,409,409,409,409,409,409,409,409,409,409,409,409,409,409,409,409,409,409,409,409,409,409,409,409,409,409,409,409,409,409,409,409,409,409,409,409,409,409,409,409,408,408,408,408,408,408,408,407,407,407,406,405,405,404,403,403,401,399,399,399,394,394,392,392,389,387,387,385,384,384,382,382,382,381,381,381,380,380,380,380,380,381,381,381,382,382,383,383,383,383,383,382,382,382,382,381,381,381,380,380,380,379,379,379,379,378,378,378,378,378,378,378,378,378,379,380,381,381,383,384,386,386,388,390,393,395,395,397,399,400,400,402,403,404,404,404,405,405,405,405,405,405,405,405,405,405,405,405,405,404,404,404,404,404,404,404,404,404,404,404,404,404,404,404,405,404,404,404,404,404,404,404,404,404,404,404,404,404,404,404,404,404,404,404,404,404,404,404,404,404,404,404,404,404,404,404,404,403,403,403,403,403,403,403,404,404,404,404,404,404,404,404,404,404,404,404,404,404,404,404,404,404,403,403,403,403,403,403,403,403,403,403,403,403,403,403,403,403,403,403,403,403,403,403,403,403,403,403,403,403,403,403,403,403,403,403,403,403,403,403,403,403,403,403,403,403,403,403,403,403,403,403,402,402,402,402,402,402,402,402,402,402,403,0,0,0,0,0,0,0,0,0,0,0,0,0,0,0,0,0,0,0,0,0,0,0,0,0,0,0,333,333,333,333,333,333,333,333,333,334,334,334,334,335,335,335,335,0,0,0,0,0,0,0,0,0,0,0,0,0,0,0,0,0,0,0,0,0,0,0,0,0,390,390,390,390,390,391,391,391,391,391,391,391,391,391,391,391,391,391,391,391,391,391,391,391,391,391,391,391,391,391,391,391,391,391,391,390,390,390,390,390,390,390,390,390,390,389,389,390,389,389,389,388,387,387,387,387,388,388,388,388,388,388,388,389,389,389,389,389,389,389,388,388,388,388,389,389,389,389,389,389,389,389,389,389,389,389,389,389,389,389,389,388,388,388,388,388,388,388,388,388,388,388,389,389,389,389,389,389,388,388,388,388,388,388,388,387,387,387,387,387,387,386,385,385,385,384,384,383,382,382,382,380,380,380,378,378,378,377,376,376,376,376,376,375,375,0,0,0,0,0,0,0,0,0,0,0,0,0,0,0,0,0,0,0,0,0,0,0,0,0,0,0,0,0,0,332,332,332,331,331,331,331,330,330,330,330,330,330,330,330,330,330,396,396,396,396,396,396,396,396,396,396,396,396,396,396,396,396,396,396,395,395,395,395,395,395,395,395,396,396,396,395,395,395,395,395,395,395,395,395,395,394,394,394,394,394,394,394,394,394,394,394,394,394,394,394,394,395,395,395,395,395,395,395,395,395,395,395,395,395,395,395,395,395,395,395,395,395,395,395,395,395,395,395,395,395,395,394,394,395,395,395,395,395,395,395,395,395,395,395,395,395,395,395,395,395,395,395,395,394,394,394,394,394,394,394,394,394,394,393,393,393,393,392,392,392,391,391,391,390,390,389,389,388,388,387,387,387,387,0,0,0,0,0,0,0,0,372,371
413,412,412,412,412,412,411,411,411,411,411,411,410,410,410,410,410,410,410,410,410,410,410,410,410,409,409,409,409,409,409,409,409,409,409,409,409,409,409,410,410,410,409,409,409,409,409,409,409,409,409,409,409,409,409,409,409,409,408,408,408,408,408,408,408,408,408,408,408,408,408,408,408,408,408,408,408,409,409,409,409,409,409,409,409,409,409,409,409,409,409,409,409,409,409,409,409,409,409,409,409,409,409,409,409,409,409,409,409,409,409,409,409,409,409,409,409,409,409,409,409,409,409,408,408,408,408,408,408,408,408,408,407,407,407,406,405,405,404,402,402,400,398,398,395,394,393,391,391,389,387,387,385,384,384,382,381,381,381,380,380,380,380,380,380,380,381,381,381,382,382,383,383,383,383,383,382,382,382,382,381,381,381,380,380,380,379,379,379,379,378,378,378,378,378,378,378,378,378,379,380,381,381,382,384,386,386,388,390,392,394,394,397,398,400,400,401,403,404,404,404,405,405,405,405,405,405,405,405,405,405,405,405,405,404,404,404,404,404,404,404,404,404,404,404,404,404,404,404,405,404,404,404,404,404,404,404,404,404,404,404,404,404,404,404,404,404,404,404,404,404,404,404,404,404,404,404,404,404,404,404,403,403,403,403,403,403,403,403,404,404,404,404,404,404,404,404,404,404,404,404,404,404,404,404,404,404,403,403,403,403,403,403,403,403,403,403,403,403,403,403,403,403,403,403,403,403,403,403,403,403,403,403,403,403,403,403,403,403,403,403,403,403,403,403,403,403,403,403,403,403,403,403,403,403,403,403,402,402,402,402,402,402,402,402,402,402,403,403,403,0,0,0,0,0,0,0,0,0,0,0,0,0,0,0,0,0,0,0,0,0,0,0,0,0,333,333,333,333,333,333,333,333,333,334,334,334,334,335,335,335,336,0,0,0,0,0,0,0,0,0,0,0,0,0,0,0,0,0,0,0,0,387,387,389,389,389,390,390,390,390,390,391,391,391,391,391,391,391,391,391,391,391,391,391,391,391,391,391,391,391,391,391,391,391,391,391,391,391,391,391,390,390,390,390,390,390,390,390,389,389,389,389,389,390,389,389,0,388,387,387,387,387,388,0,388,388,388,388,388,389,389,389,389,389,389,389,389,389,389,389,389,389,389,389,389,389,389,389,389,389,389,389,389,389,389,389,389,388,388,388,388,388,388,388,388,389,389,389,389,389,389,389,389,389,388,388,388,388,388,388,388,387,387,387,387,387,386,386,385,385,385,384,384,383,382,382,382,381,381,380,379,378,378,377,377,377,376,376,376,375,375,375,374,374,0,0,0,0,0,0,0,0,0,0,0,0,0,0,0,0,0,0,0,0,0,0,0,0,0,0,0,0,0,332,331,331,331,330,330,330,330,330,330,330,330,330,330,330,396,396,396,396,396,396,396,396,396,396,396,396,396,396,396,396,396,396,395,395,395,395,395,395,395,395,395,396,396,396,396,396,396,396,396,395,395,395,395,394,394,394,394,394,394,394,394,394,394,394,394,394,394,394,394,395,395,395,395,396,396,395,395,395,395,395,395,395,395,395,395,395,395,395,395,395,395,395,395,395,395,395,395,395,395,394,394,395,395,395,395,395,395,395,395,395,395,395,395,395,395,395,395,395,395,395,394,394,394,394,394,394,394,394,394,394,394,394,394,393,393,392,392,392,391,391,391,390,390,389,389,388,388,387,387,387,385,385,0,0,0,0,0,374,374,372,371
412,412,412,412,412,412,412,412,411,411,411,411,411,411,410,410,410,410,410,410,410,410,410,410,410,410,409,409,409,409,409,409,409,410,410,410,410,410,410,410,410,410,409,409,409,409,409,409,409,409,409,409,409,409,409,409,409,409,408,408,408,408,408,408,408,408,408,408,408,408,408,408,408,408,408,408,408,409,409,409,409,409,409,409,409,409,409,409,409,409,409,409,409,409,409,409,409,409,409,409,409,409,409,409,409,408,408,408,408,408,409,409,409,409,409,409,409,409,409,409,409,408,408,408,408,408,408,408,408,408,408,408,407,407,407,406,405,405,403,402,402,399,397,397,395,395,392,390,390,388,386,386,385,384,384,382,381,381,380,380,380,380,380,380,380,380,380,381,381,382,382,383,383,383,383,383,382,382,382,382,381,381,381,380,380,380,380,380,379,379,378,378,378,378,378,378,378,378,378,379,380,381,381,382,384,386,386,388,390,392,394,394,397,398,400,400,401,403,404,404,404,405,405,405,405,405,405,405,405,405,405,405,405,405,405,405,404,404,404,404,404,404,404,404,404,404,404,405,405,405,405,405,405,405,405,405,404,404,404,404,404,404,404,404,404,404,404,404,404,404,404,404,404,404,404,404,404,404,404,404,404,403,403,404,403,403,403,403,403,404,404,404,404,404,404,404,404,404,404,404,404,404,404,404,404,404,404,403,403,403,403,403,403,403,403,403,403,403,403,403,403,403,403,403,403,403,403,404,404,403,403,403,403,403,403,403,403,403,403,403,403,403,403,403,403,403,403,403,403,403,403,403,403,403,403,403,403,402,402,402,402,403,403,403,403,403,403,403,403,403,0,0,0,0,0,0,0,0,0,0,0,0,0,0,0,0,0,0,0,0,0,0,0,333,333,333,333,333,333,333,333,333,333,333,334,334,334,334,335,336,336,0,0,0,0,0,0,0,0,0,0,0,0,0,0,0,381,381,381,0,0,0,387,387,389,389,389,390,390,390,390,391,391,391,391,391,391,391,391,391,391,391,391,391,391,391,391,391,391,391,391,391,391,391,391,391,391,391,391,391,391,390,390,390,390,390,390,390,390,389,389,389,389,0,0,0,0,0,0,0,0,0,0,0,0,0,389,389,388,388,389,389,389,389,389,389,389,389,389,389,389,389,389,389,389,389,389,389,389,389,389,389,389,389,389,389,389,389,389,389,389,388,388,388,389,389,389,389,389,389,389,389,389,389,389,388,388,388,388,388,388,388,387,387,387,387,387,386,386,385,385,385,384,384,383,382,382,382,381,381,380,379,378,378,377,377,377,376,376,376,375,375,375,374,374,0,0,0,0,0,0,0,0,0,0,0,0,0,0,0,0,0,0,0,0,0,0,0,0,0,0,0,0,0,332,331,331,331,330,330,330,330,330,330,330,330,330,330,330,396,396,397,396,396,396,396,396,396,396,396,396,396,396,396,396,396,396,395,395,395,395,395,395,395,395,395,396,396,396,396,396,396,396,396,395,395,395,395,394,394,394,394,394,394,394,394,394,394,394,394,394,394,394,394,395,395,395,395,396,396,395,395,395,396,395,395,395,395,395,395,395,395,395,395,395,395,395,395,395,395,395,395,395,395,395,395,395,395,395,395,395,395,395,395,395,395,395,395,395,395,395,395,395,395,395,394,394,394,394,394,395,394,394,394,394,394,394,394,394,393,392,392,392,391,391,391,390,390,389,389,388,388,387,386,386,385,384,384,382,379,379,377,374,374,373,371
412,412,412,412,412,412,412,412,411,411,411,411,411,411,410,410,410,410,410,410,410,410,410,410,410,410,410,410,410,410,410,410,410,410,410,410,410,410,410,410,410,410,409,409,409,409,409,409,409,409,409,409,409,409,409,409,409,409,408,408,408,408,408,408,408,408,408,408,408,408,408,408,408,408,408,408,408,409,409,409,409,409,409,409,409,409,409,409,409,409,409,409,409,409,409,409,409,409,409,409,409,409,409,409,409,408,408,408,408,408,409,409,409,409,409,409,409,409,409,409,409,408,408,408,408,408,408,408,408,408,408,408,407,407,407,406,405,405,403,402,402,399,397,397,395,395,392,390,390,388,386,386,385,384,384,382,381,381,380,380,380,380,380,380,380,380,380,381,381,382,382,383,383,383,383,383,383,382,382,382,382,382,381,381,381,380,380,380,379,379,379,379,378,378,378,378,378,378,378,379,380,381,381,382,384,386,386,388,390,392,395,395,397,398,400,400,401,403,404,404,404,405,405,405,405,405,405,405,405,405,405,405,405,405,405,405,404,404,404,404,404,404,404,404,405,405,405,405,405,405,405,405,405,405,405,405,405,405,405,405,404,404,404,404,404,404,404,404,404,404,404,404,404,404,404,404,404,404,404,404,404,404,404,404,404,404,404,404,404,404,404,404,404,404,404,404,404,404,404,404,404,404,404,404,404,404,404,403,403,403,403,403,403,403,403,403,403,403,403,403,404,404,404,404,404,404,404,404,404,404,404,404,404,404,404,403,403,0,403,403,403,403,403,403,403,403,403,403,403,403,403,403,403,403,403,403,403,402,402,402,403,403,403,403,403,403,403,403,403,403,0,0,0,0,0,0,0,0,0,0,0,0,0,0,0,0,0,0,0,0,0,0,0,333,333,333,333,333,333,333,333,333,333,333,334,334,334,0,0,0,0,0,0,0,0,0,0,0,0,0,0,0,0,0,0,0,381,381,381,0,0,0,0,0,389,389,389,390,390,390,390,391,391,391,391,391,391,391,391,391,391,391,392,392,391,391,391,391,391,391,391,391,391,391,391,391,391,391,391,391,391,390,390,390,390,390,390,390,390,389,389,389,389,0,0,0,0,0,0,0,0,0,0,0,0,0,0,389,389,389,389,389,389,389,389,389,389,389,389,389,389,389,389,389,389,389,389,389,389,389,389,389,389,389,389,389,389,389,389,389,389,389,389,389,389,389,389,389,389,389,389,389,389,389,389,388,388,388,388,388,388,388,387,387,387,387,387,386,386,386,386,385,384,384,384,383,383,382,381,381,380,379,378,378,377,377,377,376,376,376,375,375,375,374,374,0,0,0,0,0,0,0,0,0,0,0,0,0,0,0,0,0,0,0,0,0,0,0,0,0,0,0,0,0,0,331,331,0,0,330,330,330,330,330,330,330,330,330,330,397,397,397,396,396,396,396,396,396,396,396,396,396,396,396,396,396,396,396,396,396,396,396,396,396,396,396,396,396,396,396,396,396,396,396,395,395,395,395,395,395,395,394,394,394,394,394,394,394,394,394,394,394,395,395,395,395,395,396,396,396,396,396,396,396,395,395,395,395,395,395,395,395,395,395,395,395,395,395,395,395,395,395,395,395,395,395,395,395,395,395,395,395,395,395,395,395,395,395,395,395,395,395,395,395,395,394,394,394,394,394,395,395,395,394,394,394,394,394,394,393,393,393,392,392,392,391,390,390,389,389,388,388,387,386,386,385,384,384,382,379,379,377,375,375,373,371
412,412,412,412,412,412,412,412,411,411,411,411,411,411,410,410,410,410,410,410,410,410,410,410,410,410,410,410,410,410,410,410,410,410,410,410,410,410,410,410,410,410,409,409,409,409,409,409,409,409,409,409,409,409,408,408,409,409,408,408,408,408,408,408,408,408,408,408,408,408,408,408,408,408,408,408,408,409,409,409,409,409,409,409,409,409,409,409,409,409,409,409,409,409,409,409,408,408,408,408,408,408,408,408,408,408,408,408,408,408,408,408,408,409,409,409,409,409,409,408,408,408,408,408,408,408,408,408,408,408,408,408,407,407,407,406,404,404,403,401,401,399,397,397,394,394,392,390,390,388,386,386,385,384,384,382,381,381,380,379,379,379,379,379,380,380,380,381,381,382,382,383,383,383,383,383,383,382,382,382,382,382,381,381,381,380,380,380,379,379,379,379,378,378,378,378,378,378,378,379,380,381,381,382,384,386,386,388,390,392,395,395,397,398,400,400,401,403,404,404,404,405,405,405,405,405,405,405,405,405,405,405,405,405,404,404,404,404,404,404,404,404,404,404,405,405,405,405,405,405,405,405,405,405,405,405,404,404,404,404,404,404,404,404,404,404,404,404,404,404,404,404,404,404,404,404,404,404,404,404,404,404,404,404,404,404,404,404,404,404,404,404,404,404,404,404,404,404,404,404,404,404,404,404,404,404,404,403,403,403,403,403,403,403,403,403,403,403,403,403,404,404,404,404,404,404,404,404,404,404,404,404,404,404,404,403,403,0,403,403,403,403,403,403,403,403,403,403,403,403,403,403,403,403,403,403,402,402,402,402,403,403,403,403,403,403,403,403,403,403,403,0,0,0,0,0,0,0,0,0,0,0,0,0,0,0,0,0,0,0,0,0,0,333,333,333,333,333,333,333,333,333,333,333,334,334,334,0,0,0,0,0,0,0,0,0,0,0,0,0,0,0,0,0,0,380,380,381,381,382,383,0,386,386,388,389,389,389,390,390,390,390,391,391,391,391,391,391,391,391,391,391,392,392,391,391,391,391,391,391,391,391,391,391,391,391,391,391,391,390,390,390,390,390,390,390,390,390,390,389,389,389,389,389,389,389,389,389,389,389,389,389,389,389,389,389,389,389,389,389,389,389,389,389,389,389,389,389,389,389,389,389,389,389,389,389,389,389,389,389,389,389,389,389,389,389,389,389,389,389,389,389,389,389,389,389,389,389,389,389,389,389,389,389,389,388,388,388,388,388,388,388,387,387,387,387,387,386,386,385,385,385,384,384,383,383,383,382,381,381,380,379,378,378,377,377,377,376,376,376,375,375,375,374,374,0,0,0,0,0,0,0,0,0,0,0,0,0,0,0,0,0,0,0,0,0,0,0,0,0,0,0,333,333,0,331,331,331,331,330,330,330,330,330,330,330,330,330,330,397,397,397,396,396,396,396,396,396,396,396,396,396,396,396,396,396,396,396,396,396,396,396,396,396,396,396,396,396,396,396,396,396,396,396,395,395,395,395,395,395,395,394,394,394,394,394,394,394,394,394,394,394,395,395,395,395,395,396,396,396,396,396,396,396,395,395,395,395,395,395,395,395,395,395,395,395,395,395,395,395,395,395,395,395,395,395,395,395,395,395,395,395,395,395,395,395,395,395,395,394,394,394,394,394,394,394,394,394,394,394,395,395,394,394,394,394,394,394,394,393,393,393,392,392,392,391,390,390,389,388,388,388,387,386,386,385,384,384,382,379,379,377,375,375,373,371
412,412,412,412,412,412,412,412,412,411,411,411,411,411,410,410,410,410,410,410,410,410,410,410,410,410,410,410,410,410,410,410,410,410,410,410,410,410,410,410,410,410,410,410,409,409,409,409,409,409,409,409,409,409,408,408,408,408,408,408,408,408,408,408,408,408,408,408,408,408,408,408,408,408,408,408,408,408,408,409,409,409,409,409,409,409,409,409,409,409,409,409,409,409,409,409,408,408,408,408,408,408,408,408,408,408,408,408,408,408,408,408,408,408,408,408,408,408,408,408,408,408,408,408,408,408,408,408,408,408,408,408,407,407,407,406,404,404,403,401,401,399,397,397,394,394,392,390,390,388,387,387,385,383,383,381,380,380,379,379,379,379,379,379,379,379,380,381,381,382,382,383,383,383,383,383,383,383,383,382,382,382,381,381,381,380,380,380,379,379,379,379,378,378,378,378,378,378,378,379,380,381,381,382,384,386,386,388,390,393,395,395,397,399,400,400,402,403,404,404,404,405,405,405,405,405,405,405,405,405,405,405,405,405,404,404,404,404,405,404,404,405,405,405,405,405,405,405,405,405,405,405,405,405,405,405,404,404,404,404,404,404,404,404,404,405,405,405,404,404,404,404,404,404,404,404,404,404,404,404,404,404,404,404,404,404,404,404,404,404,404,404,404,404,404,404,404,404,404,404,404,404,404,404,404,404,404,404,404,404,404,403,403,404,403,403,404,404,404,404,404,404,404,404,404,404,404,405,405,404,404,404,404,404,404,404,404,0,0,0,403,403,403,403,403,403,403,403,403,403,403,403,403,403,403,403,402,402,403,402,402,403,403,403,403,403,403,403,403,403,403,0,0,0,0,0,0,0,0,0,0,0,0,0,0,0,0,0,0,0,0,0,0,333,333,333,333,333,333,333,333,333,333,333,334,0,0,0,0,0,0,0,0,0,0,0,0,0,0,0,0,0,0,0,0,380,380,381,381,382,383,384,384,386,387,388,388,389,390,390,390,390,391,391,391,391,391,391,391,391,391,391,392,392,391,391,391,391,391,391,391,391,391,391,391,391,391,391,391,390,390,390,390,390,390,390,390,390,390,390,390,389,389,389,389,389,389,389,389,389,389,389,389,389,389,389,389,389,389,389,389,389,389,389,389,389,389,389,389,389,389,389,389,389,389,389,389,389,389,389,389,389,389,389,389,389,389,389,389,389,389,389,389,389,389,389,389,389,389,389,389,389,389,389,389,389,389,388,388,388,388,388,387,387,387,387,387,386,386,385,385,385,384,384,383,383,383,382,381,381,380,380,378,378,378,377,377,376,376,376,375,375,375,374,374,0,0,0,0,0,0,0,0,0,0,0,0,0,0,0,0,0,0,0,0,0,0,0,0,0,0,0,333,333,0,0,331,331,331,330,330,330,330,330,330,330,330,330,330,397,397,397,397,396,396,396,396,396,396,396,396,396,396,396,396,396,396,396,396,396,396,396,396,396,396,396,396,396,396,396,396,396,396,396,396,395,395,395,395,395,395,394,394,394,394,394,394,394,394,394,395,395,395,395,395,395,395,396,396,396,396,396,396,396,396,396,395,395,395,395,395,395,395,395,395,395,395,395,395,396,395,395,395,395,395,395,395,395,395,395,395,395,395,395,395,395,395,395,394,394,394,394,394,394,394,394,394,394,394,394,394,395,394,394,394,394,394,394,394,394,393,393,392,392,392,391,390,390,389,388,388,388,387,386,386,385,384,384,382,380,380,377,375,375,373,371
