412,411,411,411,411,411,411,411,410,410,410,410,410,410,410,410,410,410,410,410,409,409,409,409,409,409,409,409,409,409,409,409,409,409,409,409,409,409,409,409,409,409,409,409,409,409,409,409,409,409,409,409,409,409,409,409,409,409,409,409,409,409,409,409,408,408,408,408,408,408,408,408,408,408,408,408,408,408,408,408,408,408,408,408,408,408,408,408,408,408,408,408,409,409,409,409,409,409,409,409,409,409,409,409,409,408,408,408,408,408,408,408,408,408,408,408,408,408,408,408,407,407,407,407,407,407,407,407,407,407,407,406,406,406,406,407,407,406,406,406,406,406,406,0,0,0,0,0,0,0,0,378,378,377,377,377,377,377,377,377,377,377,377,377,377,378,378,378,379,380,381,381,381,382,382,382,383,383,382,382,382,381,380,380,380,379,379,378,377,377,377,377,377,377,377,377,378,378,380,381,383,384,384,386,389,392,392,394,396,397,397,399,400,401,401,402,403,403,403,404,404,404,405,405,405,404,404,404,404,404,404,404,404,404,404,404,404,404,404,404,404,404,404,404,404,404,404,404,404,404,404,404,404,404,404,404,404,404,404,403,403,403,403,403,403,403,403,403,403,403,403,403,403,403,403,403,403,403,403,403,403,403,403,403,403,403,403,403,403,403,403,403,403,403,403,404,404,404,404,404,404,403,403,403,403,403,403,403,403,403,403,403,403,402,402,402,402,402,402,402,402,402,402,402,402,402,402,402,402,403,403,403,403,403,403,403,403,403,403,403,403,403,403,403,403,402,402,402,402,402,402,402,402,402,402,402,402,402,402,402,402,401,401,401,401,401,400,400,400,400,0,0,0,0,0,0,0,0,0,0,0,0,0,0,0,0,0,0,0,0,0,0,0,0,0,0,333,333,333,333,333,333,333,333,333,333,334,334,334,334,335,335,335,0,0,0,0,0,0,0,0,0,0,0,0,0,0,378,378,379,379,380,381,381,381,382,382,384,384,384,385,385,386,387,387,387,388,388,389,389,389,390,390,390,390,390,390,390,390,390,390,390,390,390,390,390,390,390,390,390,390,390,390,390,389,389,388,388,388,388,388,388,388,388,387,387,388,388,388,388,388,388,388,388,388,388,389,389,389,389,389,389,389,389,389,389,389,389,389,389,389,389,389,389,389,389,389,389,389,390,390,390,390,390,390,390,390,390,390,390,389,389,389,389,389,389,389,389,389,389,389,388,388,388,388,388,388,387,387,387,387,386,386,386,385,385,384,383,383,383,382,382,381,380,379,379,378,377,377,376,374,374,374,372,372,370,369,369,368,368,368,366,365,365,363,363,0,0,0,0,0,0,0,0,0,0,0,0,0,0,0,0,0,0,0,335,335,334,333,333,333,332,332,331,330,330,330,330,329,329,329,0,0,0,0,396,396,396,396,396,396,396,396,396,396,396,396,396,396,396,396,396,395,395,395,395,395,395,395,395,395,395,395,395,395,395,395,395,395,395,395,395,395,395,395,395,394,394,394,394,394,394,394,394,394,394,394,394,394,394,394,394,394,394,394,394,394,394,394,394,394,394,394,394,394,394,394,394,394,394,394,394,394,394,394,394,394,394,394,394,394,394,394,394,394,394,394,394,394,394,394,394,394,394,394,394,394,394,394,394,394,394,394,394,394,394,394,394,394,394,394,394,394,394,393,393,393,393,392,392,392,392,391,391,391,390,390,389,388,387,387,387,386,386,385,384,384,382,380,380,377,377,0,0,371,371
412,412,411,411,411,411,411,411,411,411,410,410,410,410,410,410,410,410,410,410,410,410,410,409,409,409,409,409,409,409,409,409,409,409,409,409,409,409,409,409,409,409,409,409,409,409,409,409,410,410,410,410,410,409,409,409,409,409,409,409,409,409,409,409,409,409,409,408,408,408,408,408,408,408,408,408,408,408,408,408,408,408,408,408,408,408,408,408,408,408,408,409,409,409,409,409,409,409,409,409,409,409,409,409,409,408,408,408,408,408,408,408,408,408,408,408,408,408,408,408,407,407,407,407,407,407,407,407,407,407,407,406,406,406,406,407,407,406,406,406,406,406,406,0,0,0,0,0,0,0,0,380,379,379,378,378,378,377,377,377,377,377,377,377,377,378,378,378,379,380,381,381,381,382,382,382,382,382,382,382,382,381,380,380,379,378,378,378,377,377,377,377,377,377,377,377,378,378,380,381,383,384,384,386,389,392,392,394,396,397,397,399,400,401,401,402,403,403,403,404,404,404,405,405,405,404,404,404,404,404,404,404,404,404,404,404,404,404,404,404,404,404,404,404,404,404,404,404,404,404,404,404,404,404,404,404,404,404,404,403,403,403,403,403,403,403,403,403,403,403,403,403,403,403,403,403,403,403,403,403,403,403,403,403,403,403,403,403,403,403,403,403,403,403,403,403,403,404,404,404,403,403,403,403,403,403,403,403,403,403,403,403,403,402,402,402,402,402,402,402,402,402,402,402,402,402,402,402,402,403,403,403,403,403,403,403,403,403,403,403,403,403,403,403,403,402,402,402,402,402,402,402,402,402,402,402,402,402,402,402,402,401,401,401,400,400,400,400,400,400,0,0,0,0,0,0,0,0,0,0,0,0,0,0,0,0,0,0,0,0,0,0,0,0,0,0,333,333,333,333,333,333,333,333,333,333,334,334,334,334,335,335,335,336,336,337,337,0,0,0,0,0,0,0,0,0,0,378,378,379,379,380,381,381,381,382,382,384,384,384,385,385,386,387,387,387,388,388,389,389,389,390,390,390,390,390,390,390,390,390,390,390,390,390,390,390,390,390,390,390,390,390,390,389,389,389,388,388,388,388,388,388,388,387,387,387,388,388,388,388,388,388,388,388,388,388,389,389,389,389,389,389,389,389,389,389,389,389,389,389,389,389,389,389,389,389,389,389,389,390,390,390,390,390,390,390,390,390,390,390,389,389,389,389,389,389,389,389,389,389,388,388,388,388,388,388,388,387,387,387,387,386,386,386,385,385,384,383,383,383,382,382,381,380,379,379,378,377,377,376,374,374,374,372,372,370,369,369,368,368,368,366,365,365,363,363,0,0,0,0,0,0,0,0,0,0,0,0,0,0,0,0,0,0,0,335,335,334,333,333,332,332,332,331,330,330,330,330,329,329,329,329,329,329,0,396,396,396,396,396,396,396,396,396,396,396,396,396,396,396,396,396,395,395,395,395,395,395,395,395,395,395,395,395,395,395,395,395,395,395,395,394,394,394,394,394,394,394,394,394,394,394,394,394,394,394,394,394,394,394,394,394,394,394,394,394,394,394,394,394,394,394,394,394,394,394,394,394,394,394,394,394,394,394,394,394,394,394,394,394,394,394,394,394,394,394,394,394,394,394,394,394,394,394,394,394,394,394,394,394,394,394,394,394,394,394,394,394,394,394,394,394,394,394,393,393,393,393,392,392,392,392,391,391,391,390,390,389,388,387,387,386,385,385,384,383,383,381,379,379,377,375,375,373,371,371
412,412,411,411,411,411,411,411,411,411,410,410,410,410,410,410,410,410,410,410,410,410,410,409,409,409,409,409,409,409,409,409,409,409,409,409,409,409,409,409,409,409,409,409,409,409,409,409,410,410,410,410,410,409,409,409,409,409,409,409,409,409,409,409,409,409,409,408,408,408,408,408,408,408,408,408,408,408,408,408,408,408,408,408,408,408,408,408,408,408,408,409,409,409,409,409,409,409,409,409,409,409,409,409,408,408,408,408,408,408,408,408,408,408,408,408,408,407,407,407,407,407,407,407,406,406,406,406,406,406,406,406,406,406,406,406,406,406,406,406,405,405,405,0,0,0,0,0,0,0,0,380,379,379,378,378,378,377,377,377,377,377,377,377,377,378,378,378,379,380,381,381,381,382,382,382,382,382,382,381,381,381,380,380,379,378,378,378,377,377,377,377,377,377,377,377,378,378,380,381,383,385,385,387,389,392,392,394,396,397,397,399,400,401,401,402,402,403,403,404,404,404,405,405,405,404,404,404,404,404,404,404,404,404,404,404,404,404,404,404,404,404,404,404,404,404,404,404,404,404,404,404,404,404,404,404,403,403,404,403,403,403,403,403,403,403,403,403,403,403,403,403,403,403,403,403,403,403,404,403,403,404,404,404,404,404,404,403,403,403,403,403,403,403,403,403,403,403,403,403,403,403,403,403,403,403,403,403,403,403,402,402,402,402,402,402,402,402,402,402,402,402,402,402,402,402,402,402,402,403,403,403,403,403,403,403,403,403,403,403,403,403,403,403,403,402,402,402,402,402,402,402,402,402,402,402,402,402,402,401,401,401,400,400,400,400,399,399,399,399,0,0,0,0,0,0,0,0,0,0,0,0,0,0,0,0,0,0,0,0,0,0,0,0,0,0,333,333,333,333,333,333,333,333,334,334,334,334,334,334,335,335,335,336,336,337,337,0,0,0,0,0,0,372,372,0,0,377,377,379,379,380,381,381,381,382,383,384,384,385,385,385,386,387,388,388,388,389,389,389,390,390,390,390,390,390,390,390,390,390,390,390,390,390,390,390,390,390,390,390,390,390,390,389,389,389,389,388,388,388,388,388,388,387,387,387,388,388,388,388,388,388,388,388,388,388,389,389,389,389,389,389,389,389,388,388,389,389,389,389,389,389,389,389,389,389,389,389,389,390,390,390,390,390,390,390,390,390,390,390,389,389,389,389,389,389,389,389,389,389,388,388,388,388,388,388,388,387,387,387,387,387,387,386,385,385,384,384,384,383,382,382,381,380,380,380,378,377,377,376,375,375,374,372,372,371,370,370,369,369,369,368,368,368,0,0,0,0,0,0,0,0,0,0,0,0,0,0,0,0,0,0,0,0,0,0,0,334,333,333,332,332,332,331,330,330,330,330,329,329,329,329,329,329,0,396,396,396,396,396,396,396,396,396,396,396,396,396,396,396,396,396,395,395,395,395,395,395,395,395,395,395,395,395,395,395,395,394,394,394,394,394,394,394,394,394,394,394,394,394,394,394,394,394,394,394,394,394,394,394,394,394,394,394,394,394,394,394,394,394,394,394,394,394,394,394,394,394,394,394,394,394,394,394,395,394,394,395,395,394,394,394,394,394,394,394,394,394,394,394,394,394,394,394,394,394,394,395,395,395,395,395,395,394,394,394,394,394,394,394,394,394,394,394,393,393,393,393,392,392,392,392,392,392,391,390,390,389,388,387,387,386,385,385,384,382,382,381,379,379,377,375,375,373,372,372
412,412,411,411,411,411,411,411,411,411,411,410,410,410,410,410,410,410,410,410,410,410,410,410,410,409,409,409,409,409,409,409,409,409,409,409,409,409,409,409,409,409,409,409,409,409,409,409,410,410,410,410,410,410,410,410,410,409,409,409,409,409,409,409,409,409,409,409,409,409,409,409,409,409,408,408,408,408,408,408,408,408,408,408,408,408,408,408,408,408,408,409,409,409,409,409,409,409,409,409,409,409,409,409,408,408,408,408,408,408,408,408,408,408,408,408,408,407,407,407,407,407,406,406,406,406,406,406,406,406,406,406,406,406,406,406,406,406,406,406,405,404,404,0,0,0,0,0,0,0,0,0,381,381,379,378,378,378,377,377,377,377,377,377,378,378,379,379,379,380,381,381,381,382,382,382,382,382,382,381,381,380,380,380,379,378,378,378,377,377,377,377,377,377,377,378,379,380,380,382,383,385,385,387,390,392,392,394,396,397,397,398,400,401,401,402,402,403,403,404,404,404,405,405,405,404,404,404,404,404,404,404,404,404,404,404,404,404,404,404,404,404,404,404,404,403,403,403,403,403,403,403,403,403,403,403,403,403,403,403,403,403,403,403,403,403,403,403,403,403,403,403,403,403,403,403,403,403,403,403,404,404,404,404,404,404,404,403,403,403,403,403,403,403,403,404,404,403,403,403,403,403,403,403,403,403,403,403,403,403,402,402,402,402,402,402,402,402,402,402,402,402,402,402,402,402,402,402,402,402,402,402,402,403,403,403,403,403,403,403,403,403,403,403,403,403,403,403,402,402,402,402,402,402,402,402,402,402,402,401,401,401,400,400,400,400,399,399,399,399,0,0,0,0,0,0,0,0,0,0,0,0,0,0,0,0,0,0,0,0,0,0,0,0,0,0,332,332,332,333,333,333,333,333,334,334,334,334,334,334,335,335,335,0,0,0,0,0,0,0,0,0,0,372,372,0,375,375,377,379,379,380,381,382,382,382,383,384,384,385,386,387,387,387,388,388,389,389,389,389,390,390,390,390,390,390,390,390,390,390,390,390,390,390,390,390,390,390,390,390,390,390,390,390,390,389,389,389,0,0,0,388,388,388,388,388,388,388,388,388,388,388,388,388,388,388,388,388,388,388,388,388,389,389,388,388,389,389,389,389,389,389,389,389,389,389,389,389,389,390,390,390,390,390,390,390,390,390,390,390,389,389,389,389,389,389,389,389,389,389,389,389,389,388,388,388,388,388,388,387,387,387,387,386,385,385,385,384,384,383,382,382,382,381,380,380,379,378,378,377,376,376,375,373,373,372,371,371,370,370,370,369,368,368,0,0,0,0,0,0,0,0,0,0,0,0,0,0,0,0,0,0,0,0,0,0,0,0,0,0,332,332,332,331,331,331,330,330,330,330,330,0,0,0,0,396,396,396,396,396,396,396,396,396,396,396,396,396,396,396,396,396,395,395,395,395,395,395,395,395,395,395,395,395,395,395,395,394,394,394,394,394,394,394,394,394,394,394,394,394,394,394,394,394,394,394,394,394,394,394,394,394,394,394,394,394,394,394,394,394,394,394,394,394,394,394,394,394,394,394,394,394,395,395,395,395,395,395,395,395,395,395,395,395,394,394,394,394,395,394,394,394,395,395,395,395,395,395,395,395,395,395,395,395,394,394,394,394,394,394,394,394,394,394,394,393,393,393,393,393,393,392,392,392,391,390,390,389,388,387,387,386,385,385,384,382,382,381,379,379,377,375,375,373,372,372
412,412,411,411,411,411,411,411,411,411,411,410,410,410,410,410,410,410,410,410,410,410,410,410,410,409,409,409,409,409,409,409,409,409,409,409,409,409,409,409,409,409,409,409,409,409,409,409,410,410,410,410,410,410,410,410,410,410,410,410,410,410,410,410,409,409,409,409,409,409,409,409,409,409,409,409,409,409,409,409,408,408,408,408,408,408,408,408,408,408,408,409,409,409,409,409,409,409,409,409,409,409,409,409,408,408,408,408,408,408,408,408,408,408,408,408,408,408,408,408,407,407,406,406,406,406,406,406,406,406,406,406,406,406,406,406,406,406,406,406,405,404,404,0,0,0,0,0,0,0,0,0,381,381,380,379,379,378,378,378,378,378,378,378,378,378,379,379,380,380,381,381,382,382,382,382,382,382,382,381,381,380,380,380,379,378,378,378,377,377,377,377,377,377,377,378,379,381,381,382,384,385,385,388,390,392,392,394,396,397,397,398,400,401,401,402,402,403,403,404,404,404,405,405,405,404,404,404,404,404,404,404,404,404,404,404,404,404,404,404,404,404,404,404,404,403,403,403,403,403,403,403,403,403,403,403,403,403,403,403,403,403,403,403,403,403,403,403,403,403,403,403,403,403,403,404,404,403,403,403,404,404,404,404,404,404,404,404,404,403,403,404,404,404,404,404,404,404,403,403,403,403,403,403,403,403,403,403,403,403,402,402,402,402,402,402,402,402,402,402,402,402,402,402,402,402,402,402,402,402,402,402,402,403,403,403,403,403,403,403,403,403,403,403,403,403,403,403,402,402,402,402,402,402,402,402,402,402,402,401,401,401,400,400,400,400,399,399,399,399,0,0,0,0,0,0,0,0,0,0,0,0,0,0,0,0,0,0,0,0,0,0,0,0,0,0,332,332,332,333,333,333,333,333,334,334,334,334,334,334,0,0,0,0,0,0,0,0,0,0,0,0,0,0,0,0,375,375,377,379,379,380,381,382,382,383,384,385,385,386,387,387,387,388,388,388,389,389,390,390,390,390,390,390,390,390,390,390,390,390,390,390,390,390,390,391,391,391,391,0,0,0,0,0,0,0,0,0,0,0,0,0,0,0,0,0,0,388,388,388,388,388,388,388,388,388,388,388,388,388,388,388,389,389,388,388,0,0,0,0,0,0,389,389,390,390,390,390,390,390,390,390,390,390,390,390,390,390,390,390,389,389,389,389,389,389,389,389,389,389,389,389,389,388,388,388,388,388,388,388,387,387,387,387,386,386,385,384,384,384,383,382,382,381,380,380,380,379,379,378,377,377,375,374,374,373,373,373,372,371,371,0,0,0,0,0,0,0,0,0,0,0,0,0,0,0,0,0,0,0,0,0,0,0,0,0,0,0,0,0,332,332,332,331,331,331,330,330,330,330,329,329,0,0,395,395,395,395,395,395,396,396,396,396,396,396,396,396,396,396,396,396,395,395,395,395,395,395,395,395,395,395,395,395,395,395,394,394,394,394,394,394,394,394,394,394,394,394,394,394,394,394,394,394,394,394,394,394,394,394,394,394,394,394,394,394,394,394,394,394,394,394,394,394,394,394,394,394,394,394,394,394,394,395,395,395,395,395,395,395,395,395,395,395,394,394,394,394,395,394,394,394,395,395,395,395,395,395,395,395,395,395,395,395,394,394,394,394,394,394,394,394,394,394,394,393,393,393,393,393,393,392,392,392,391,390,390,389,388,387,387,386,385,385,384,382,382,381,379,379,377,375,375,373,372,372
412,412,411,411,411,411,411,411,411,411,411,410,410,410,410,410,410,410,410,410,410,410,410,410,410,409,409,409,409,409,409,409,409,409,409,409,409,409,409,409,409,409,409,409,409,409,409,409,410,410,410,410,410,410,410,410,410,410,410,410,410,410,410,410,409,409,409,409,409,409,409,409,409,409,409,409,409,409,409,409,408,408,408,408,408,408,408,408,408,408,408,409,409,409,409,409,409,409,409,409,409,409,409,409,408,408,408,408,408,408,408,408,408,408,408,408,408,408,407,407,407,407,406,406,406,406,406,406,406,406,406,406,406,406,406,406,406,406,406,406,405,404,404,0,0,0,0,0,0,0,0,384,381,381,380,379,379,378,378,378,378,378,378,378,378,378,379,379,380,380,381,381,382,382,382,382,382,382,381,381,381,380,380,380,379,378,378,378,377,377,377,377,377,377,377,378,379,381,381,382,384,385,385,388,390,392,392,394,396,397,397,398,399,401,401,402,402,403,403,404,404,404,405,405,405,404,404,404,404,404,404,404,404,404,404,404,404,404,404,403,403,403,403,403,403,403,403,403,403,403,403,403,403,403,403,403,403,403,403,403,403,403,403,403,403,403,403,403,403,403,403,403,403,403,403,403,403,403,403,403,404,404,404,404,404,404,404,403,403,403,403,404,404,404,404,404,404,404,403,403,403,403,403,403,403,403,403,403,403,403,402,402,402,402,402,402,402,402,402,402,402,402,402,402,402,402,402,402,402,402,402,402,402,402,402,402,403,403,403,403,403,403,403,403,403,403,403,402,402,402,402,402,402,402,402,402,402,402,402,401,401,401,400,400,400,400,399,399,399,399,0,0,0,0,0,0,0,0,0,0,0,0,0,0,0,0,0,0,0,0,0,0,0,0,0,332,332,332,332,333,333,333,333,333,333,333,334,334,334,334,0,0,0,0,0,0,0,0,0,0,0,0,0,0,0,0,374,374,376,378,378,380,381,382,382,383,384,385,385,386,387,387,387,388,388,388,389,389,390,390,390,390,390,390,390,390,390,390,390,390,390,390,390,390,390,391,391,391,391,391,391,0,0,0,0,0,0,0,0,0,0,0,0,0,0,0,0,388,388,388,388,388,388,388,388,388,388,388,388,388,388,388,389,389,388,388,0,0,0,0,0,0,389,389,390,390,390,390,390,390,390,390,390,390,390,389,389,389,389,389,389,389,389,389,389,389,389,389,389,389,389,389,389,388,388,388,388,388,388,388,387,387,387,387,386,386,385,384,384,384,383,382,382,381,380,380,380,379,379,378,377,377,375,374,374,373,373,373,372,371,371,0,0,0,0,0,0,0,0,0,0,0,0,0,0,0,0,0,0,0,0,0,0,0,0,0,0,0,0,0,332,331,331,331,331,331,331,330,330,330,329,329,330,329,329,329,395,395,395,395,395,395,396,396,396,396,396,396,396,396,396,396,396,395,395,395,395,395,395,395,395,395,395,395,395,395,394,394,394,394,394,394,394,394,394,394,394,394,394,394,394,394,394,394,395,395,395,395,394,394,394,394,394,394,394,394,394,394,394,394,394,394,394,394,394,394,394,394,394,394,394,394,394,395,395,395,395,395,395,395,395,395,395,395,395,395,395,395,395,395,395,395,395,395,395,395,395,395,395,395,395,395,395,395,394,394,394,394,394,394,394,394,394,394,394,393,393,393,393,393,393,392,392,392,391,390,390,389,388,387,387,386,385,385,384,382,382,381,379,379,377,375,375,373,372,372
412,412,411,411,411,411,411,411,411,411,411,410,410,410,411,410,410,410,410,410,410,410,410,410,410,410,410,409,409,409,409,409,409,409,409,409,409,409,409,409,409,409,409,409,409,409,409,409,410,410,410,410,410,410,410,410,410,410,410,410,410,410,410,410,410,410,410,409,409,409,409,409,409,409,409,409,409,409,409,409,408,408,408,408,408,408,408,408,408,409,409,409,409,409,409,409,409,409,409,409,409,409,409,409,409,408,408,408,408,408,408,408,408,408,408,408,408,408,407,407,407,407,406,406,406,406,406,406,406,406,406,406,406,406,406,406,406,406,406,406,405,404,404,403,401,401,396,392,392,388,388,384,382,382,381,380,380,379,378,378,378,378,379,379,379,379,379,379,380,381,381,381,382,382,382,382,382,382,381,381,381,380,379,379,378,378,378,378,377,377,377,377,377,377,377,378,379,381,381,382,384,386,386,388,390,393,393,394,396,397,397,398,399,401,401,402,402,403,403,404,404,404,405,405,405,404,404,404,404,404,404,404,404,404,404,404,403,403,403,403,403,403,403,403,403,403,403,403,403,403,403,403,403,403,403,403,403,403,403,403,403,403,403,403,403,403,403,403,403,403,403,403,403,403,403,403,403,403,403,403,403,404,404,404,404,404,404,403,403,403,403,404,404,404,404,404,403,403,403,403,403,403,403,403,403,403,403,403,403,403,403,402,402,402,402,402,402,402,402,402,402,402,402,402,402,402,402,402,402,402,402,402,402,402,402,402,402,402,403,403,403,403,403,403,403,403,403,402,402,402,402,402,402,402,402,402,402,402,402,401,401,401,400,400,400,400,399,399,399,399,0,0,0,0,0,0,0,0,0,0,0,0,0,0,0,0,0,0,0,0,0,0,0,0,332,332,332,332,332,333,333,333,333,333,333,333,334,334,334,0,0,0,0,0,0,0,0,0,0,0,0,0,0,371,371,371,372,373,375,378,378,380,381,382,382,383,384,385,385,386,387,388,388,388,389,389,389,390,390,390,390,390,390,390,390,391,391,391,391,391,391,391,391,391,391,391,391,391,391,391,391,0,0,0,0,0,0,0,0,0,0,0,0,0,0,0,0,0,0,0,0,0,0,0,0,388,388,388,388,388,389,389,389,0,0,0,0,0,0,0,0,0,390,390,390,390,390,390,390,390,390,390,390,389,389,389,389,389,389,389,389,389,389,389,389,389,389,389,389,389,389,389,389,389,388,388,388,388,388,388,388,387,387,387,386,386,386,385,385,384,383,382,382,382,381,381,380,379,379,378,377,377,376,375,375,374,374,373,373,372,372,0,0,0,0,0,0,0,0,0,0,0,0,0,0,0,0,0,0,0,0,0,0,0,0,0,0,0,0,0,0,331,331,331,331,331,331,330,330,330,330,330,330,329,329,329,394,394,395,395,395,395,395,396,396,396,396,396,396,396,396,396,396,396,396,396,395,395,395,395,395,395,395,395,395,395,395,394,394,394,394,394,394,394,394,394,394,394,394,394,394,394,394,394,395,395,395,395,395,395,394,394,394,394,394,394,394,394,394,394,394,394,394,394,394,394,394,394,394,394,394,394,394,395,395,395,395,395,395,395,395,395,395,395,395,395,395,395,395,395,395,395,395,395,395,395,395,396,396,396,395,395,395,395,394,394,394,394,394,394,394,394,394,394,394,393,393,393,393,393,393,392,392,392,391,390,390,389,388,387,387,386,385,385,383,382,382,380,378,378,376,375,375,373,372,372
412,412,411,411,411,411,411,411,411,411,411,411,411,411,411,411,411,410,410,410,410,410,410,410,410,410,410,410,409,409,409,409,409,409,409,409,409,409,409,409,409,409,409,409,409,409,409,409,410,410,410,410,410,410,410,410,410,410,410,410,410,410,410,410,410,410,410,410,410,410,409,409,409,409,409,409,409,409,409,409,409,408,408,408,408,408,409,409,409,409,409,409,409,409,409,409,409,409,409,409,409,409,409,409,409,408,408,408,408,408,408,408,408,408,408,408,408,408,407,407,407,407,406,406,406,406,406,406,406,406,406,406,406,406,406,406,406,406,406,406,405,404,404,403,401,401,396,392,392,388,388,385,383,383,382,381,381,380,380,380,379,379,379,379,379,380,380,380,381,381,382,382,382,382,382,382,382,382,381,381,381,380,379,379,378,378,378,378,377,377,377,377,377,378,378,378,380,381,381,382,384,386,386,388,390,393,393,394,396,397,397,399,399,401,401,402,402,403,403,404,404,404,405,405,405,404,404,405,404,404,404,404,404,404,404,404,403,403,403,403,403,403,403,403,403,403,403,403,403,403,403,403,403,403,403,403,403,403,403,403,403,403,403,403,403,403,403,403,403,403,403,403,403,403,403,403,403,403,403,403,403,404,404,404,404,404,404,404,404,404,404,404,404,404,404,404,403,403,403,404,403,403,403,403,403,403,403,403,403,403,403,402,402,402,402,402,402,402,402,402,402,402,402,402,402,402,402,402,402,402,402,402,402,402,402,402,402,402,403,403,403,403,403,403,403,403,403,402,402,402,402,402,402,402,402,402,402,402,402,401,401,401,400,400,400,400,399,399,399,399,0,0,0,0,0,0,0,0,0,0,0,0,0,0,0,0,0,0,0,0,0,0,0,0,332,332,333,333,333,333,333,333,333,333,333,333,334,334,334,0,0,0,0,0,0,0,0,0,0,0,0,0,0,371,371,371,372,373,375,378,378,380,381,383,383,384,385,386,386,387,387,388,388,388,389,389,390,390,390,390,390,390,391,391,391,391,391,391,391,391,391,391,391,391,391,391,391,391,391,0,0,0,0,0,0,0,0,0,0,0,0,0,0,0,0,0,0,0,0,0,0,0,0,0,0,388,388,388,388,0,0,0,0,0,0,0,0,0,0,0,0,0,0,390,390,390,390,390,390,390,390,390,390,389,389,389,389,389,389,389,389,389,389,389,389,389,389,389,389,389,389,389,389,389,389,389,388,388,388,388,388,387,387,387,387,387,386,385,385,384,384,383,383,382,381,381,380,379,379,378,377,377,376,376,376,375,375,374,374,374,0,0,0,0,0,0,0,0,0,0,0,0,0,0,0,0,0,0,0,0,0,0,0,0,0,0,0,0,0,0,0,331,331,331,331,331,331,330,330,330,330,330,330,330,329,329,394,394,395,395,395,395,395,396,396,396,396,396,396,396,396,396,396,396,396,396,396,396,396,395,395,395,395,395,395,395,395,394,394,394,394,394,394,394,394,394,394,394,394,394,394,394,394,394,395,395,395,395,395,395,395,394,394,394,394,394,394,394,394,394,394,394,394,394,394,394,394,394,394,394,394,394,395,395,395,395,395,395,395,395,395,395,395,395,395,395,395,395,396,396,396,396,396,396,396,396,396,396,396,396,395,395,395,395,394,394,394,394,394,394,394,394,394,394,394,394,394,393,393,393,393,393,392,392,391,390,390,389,388,387,387,386,385,385,383,382,382,380,378,378,376,375,375,373,372,372
412,412,411,411,411,411,411,411,411,411,411,411,411,411,411,411,411,410,410,410,410,410,410,410,410,410,410,410,409,409,409,409,409,409,409,409,409,409,409,409,409,409,409,409,409,409,409,409,410,410,410,410,410,410,410,410,410,410,410,410,410,410,410,410,410,410,410,410,410,410,409,409,409,409,409,409,409,409,409,409,409,408,408,408,408,408,409,409,409,409,409,409,409,409,409,409,409,409,409,409,409,409,409,409,409,408,408,408,408,408,408,408,408,408,408,408,408,408,407,407,407,407,406,406,406,406,406,406,406,406,406,406,406,406,406,406,406,406,406,406,405,404,404,403,400,400,396,392,392,388,388,385,383,383,382,381,381,380,380,380,379,379,379,379,379,380,380,380,381,381,382,382,382,382,382,382,382,382,381,380,380,380,379,379,378,378,378,378,377,377,377,377,377,378,378,378,380,381,381,382,384,386,386,388,390,393,393,394,396,397,397,399,399,401,401,402,402,403,403,404,404,404,405,405,405,404,404,405,404,404,404,404,404,404,404,404,403,403,403,403,403,403,403,403,403,403,403,403,403,403,403,403,403,403,403,403,403,403,403,403,403,403,403,403,403,403,403,403,403,403,403,403,403,403,403,403,403,403,403,403,403,403,403,403,403,403,403,403,404,403,403,404,404,403,403,403,403,403,403,403,403,403,403,403,403,403,403,403,403,403,403,402,402,402,402,402,402,402,402,402,402,401,401,401,402,402,402,402,402,402,402,402,402,402,402,402,402,402,402,403,403,403,403,403,403,403,403,402,402,402,402,402,402,402,402,402,402,402,402,401,401,401,400,400,400,400,399,399,399,399,399,399,0,0,0,0,0,0,0,0,0,0,0,0,0,0,0,0,0,0,0,0,0,0,332,332,333,333,333,333,333,333,333,333,333,333,334,334,334,334,0,0,0,0,0,0,0,0,0,0,0,0,0,371,371,371,372,373,375,378,378,380,381,383,383,384,385,386,386,387,387,388,388,388,389,389,390,390,390,390,390,390,391,391,391,391,391,391,391,391,391,391,391,391,391,391,391,391,391,391,391,0,0,0,0,0,0,0,0,0,0,0,0,0,0,0,0,0,0,0,0,0,0,0,0,388,388,388,388,0,0,0,0,0,0,0,0,0,0,0,0,0,0,390,390,390,390,390,390,390,390,390,389,389,389,389,389,389,389,389,389,389,389,389,389,389,389,389,389,389,389,389,389,389,389,389,388,388,388,388,388,387,387,387,387,387,386,385,385,384,384,383,383,382,381,381,380,379,379,378,377,377,376,376,376,375,375,374,374,374,374,0,0,0,0,0,0,0,0,0,0,0,0,0,0,0,0,0,0,0,0,0,0,0,0,0,0,0,0,0,0,331,331,331,331,331,331,330,330,330,330,330,330,330,329,329,394,394,394,395,395,395,395,396,396,396,396,396,396,396,396,396,396,396,396,396,396,396,396,395,395,395,395,395,395,395,395,394,394,394,394,394,394,394,394,394,394,394,394,394,394,394,394,394,395,395,395,395,395,395,395,394,394,394,394,394,394,394,394,394,394,394,394,394,394,394,394,394,394,394,394,394,395,395,395,395,395,395,395,395,395,395,395,395,395,395,395,395,396,396,396,396,396,396,396,396,396,396,396,396,395,395,395,394,394,394,394,394,394,394,394,394,394,394,394,394,394,393,393,393,393,393,392,392,391,390,390,389,388,387,387,386,385,385,383,382,382,380,378,378,376,374,374,373,371,371
412,411,411,411,411,411,411,411,411,411,411,411,411,411,411,411,411,410,410,410,410,410,410,410,410,410,410,410,409,409,409,409,409,409,409,409,409,409,409,409,409,409,409,409,409,409,409,409,410,410,410,410,410,410,410,410,410,410,410,410,410,410,410,410,410,410,410,410,409,409,409,409,409,409,409,409,409,409,409,409,409,409,409,409,409,409,409,409,409,409,409,409,409,409,409,409,409,409,409,409,409,409,409,409,409,409,409,408,408,408,408,408,408,408,408,408,408,408,408,408,407,407,407,407,406,406,406,406,406,406,406,406,406,406,406,406,406,406,406,406,405,404,404,403,400,400,396,393,393,389,389,386,384,384,383,382,382,381,380,380,380,380,380,380,380,380,381,381,381,382,382,382,382,382,382,382,382,382,381,380,380,380,379,379,378,378,378,378,378,378,377,377,378,378,378,378,380,381,381,382,384,386,386,388,393,393,393,394,396,397,397,399,399,401,401,402,403,403,403,404,404,404,405,405,405,405,405,405,404,404,404,404,404,404,404,404,403,403,403,403,403,403,403,403,403,403,403,403,403,403,403,403,403,403,403,403,403,403,403,403,403,403,403,403,403,403,403,403,403,403,403,403,403,403,403,403,403,403,403,403,403,403,403,403,403,403,403,403,403,403,403,403,403,403,403,403,403,403,403,403,403,403,403,403,403,403,403,403,403,403,403,402,402,402,402,402,402,402,402,402,401,401,401,401,401,401,401,401,401,402,402,402,402,402,402,402,402,402,402,402,403,403,403,403,403,403,403,403,402,402,402,402,402,402,402,402,402,402,402,401,401,401,400,400,400,400,400,400,399,399,399,399,0,0,0,0,0,0,0,0,0,0,0,0,0,0,0,0,0,0,0,0,333,333,333,333,333,333,333,333,333,333,333,333,334,334,334,334,334,334,335,0,0,0,0,0,0,0,0,0,0,0,0,0,372,372,372,373,375,378,378,380,382,383,383,384,385,386,386,387,388,388,388,389,389,389,390,390,390,390,390,390,390,390,390,391,391,391,391,391,391,391,391,391,391,391,391,391,391,391,391,391,391,391,0,0,0,0,0,0,0,0,0,0,0,0,0,0,0,0,0,0,387,387,387,387,388,388,0,0,0,0,0,0,0,0,0,0,0,0,0,0,0,0,0,390,390,390,390,390,390,390,389,389,389,389,389,389,389,389,389,389,389,389,389,389,389,389,389,389,389,389,389,389,389,389,389,388,388,388,388,388,388,387,387,387,386,385,385,385,384,383,383,382,381,381,380,380,380,378,377,377,377,376,376,375,375,375,375,374,374,0,0,0,0,0,0,0,0,0,0,0,0,0,0,0,0,0,0,0,0,0,0,0,0,0,0,0,0,0,0,331,331,331,331,331,331,331,330,330,330,330,330,330,330,393,394,394,394,395,395,395,395,396,396,396,396,396,396,396,396,396,396,396,396,396,396,396,396,396,396,396,395,395,395,395,395,395,395,394,394,394,394,394,394,394,394,394,394,394,394,394,394,394,395,395,395,395,395,395,395,395,394,394,394,394,394,394,394,394,394,394,394,394,394,394,394,394,394,394,394,394,395,395,395,395,395,395,395,395,395,395,395,395,395,395,395,396,396,396,396,396,396,396,396,396,396,396,395,395,395,395,395,394,394,394,394,394,394,394,394,394,394,394,394,394,394,393,393,393,393,393,392,392,391,390,390,389,388,387,387,386,385,385,383,382,382,380,378,378,375,374,374,372,371,371
412,411,411,411,411,411,411,411,411,411,411,411,411,411,411,411,411,410,410,410,410,410,410,410,410,410,410,410,409,409,409,409,409,409,409,409,409,409,409,409,409,409,409,409,409,409,410,410,409,409,409,409,410,410,410,410,410,410,410,410,410,410,410,410,410,410,410,410,409,409,409,409,409,409,409,409,409,409,409,409,409,409,409,409,409,409,409,409,409,409,409,409,409,409,409,409,409,409,409,409,409,409,409,409,409,409,409,408,408,408,408,408,408,408,408,408,408,408,408,408,407,407,407,407,407,407,407,406,406,406,406,406,406,406,406,406,406,406,406,406,405,404,404,403,400,400,396,393,393,390,390,387,385,385,384,383,383,382,381,381,381,381,381,381,381,381,381,381,382,382,382,382,383,383,382,382,382,382,381,380,380,380,379,379,378,378,378,378,378,378,378,378,378,378,378,379,380,381,381,382,384,386,386,388,390,392,392,394,396,397,397,399,399,401,401,402,403,404,404,404,404,404,405,405,405,405,405,405,405,404,404,404,404,404,404,404,403,403,403,403,403,403,403,403,403,403,403,403,403,403,403,403,403,403,403,403,403,403,403,403,403,403,403,403,403,403,403,403,403,403,403,403,403,403,403,403,403,403,403,403,403,403,403,403,403,403,403,403,403,403,403,403,403,403,403,403,403,403,403,403,403,403,403,403,403,403,403,403,403,403,403,402,402,402,402,402,402,402,402,402,401,401,401,401,401,401,401,401,401,402,402,402,402,402,402,402,402,402,402,402,402,402,403,403,403,403,403,403,403,402,402,402,402,402,402,402,402,402,402,401,401,401,401,401,400,400,400,400,399,399,399,399,0,0,0,0,0,0,0,0,0,0,0,0,0,0,0,0,0,0,0,0,333,333,333,333,333,333,333,333,333,333,333,333,334,334,334,334,334,335,335,0,0,0,0,0,0,0,0,0,0,0,0,0,372,372,372,374,375,0,0,0,384,384,384,385,386,387,387,388,388,389,389,389,390,390,390,390,390,390,391,390,390,390,390,390,390,391,391,391,391,391,391,391,391,391,391,391,391,391,391,391,391,391,391,391,0,0,0,0,0,0,0,0,0,0,0,0,0,0,0,0,387,387,387,387,0,0,0,0,0,0,0,0,0,0,0,0,0,0,0,0,0,0,0,390,390,390,390,389,389,389,389,389,389,389,389,389,389,389,388,388,388,388,388,389,389,389,389,389,389,389,389,389,389,389,389,388,388,388,388,388,388,387,387,387,386,386,385,385,384,383,383,382,381,381,381,380,380,378,377,377,377,376,376,376,376,375,375,375,375,0,0,0,0,0,0,0,0,0,0,0,0,0,0,0,0,0,0,0,0,0,0,0,0,0,0,0,0,0,0,331,331,331,331,331,331,331,330,330,330,330,330,330,330,393,394,394,394,395,395,395,395,396,396,396,396,396,396,396,396,396,396,396,396,396,396,396,396,396,396,396,396,396,396,396,395,395,395,395,394,394,394,394,394,394,394,394,394,394,394,394,394,394,395,395,395,395,395,395,395,395,395,395,395,394,394,394,394,394,394,394,394,394,394,394,394,394,394,394,395,395,395,395,395,395,395,395,395,395,395,395,395,395,395,395,395,396,396,396,396,396,396,396,396,396,396,396,395,395,395,395,395,394,394,394,394,394,394,394,394,394,394,394,394,394,394,393,393,393,393,393,392,392,391,390,390,389,388,387,387,386,385,385,383,382,382,380,378,378,375,375,0,372,371,371
412,411,411,411,411,411,411,411,411,411,411,411,411,411,411,411,411,411,411,411,410,410,410,410,410,410,410,410,409,409,409,409,409,409,409,409,409,409,409,409,409,409,409,409,409,410,410,410,409,409,409,409,410,410,410,410,410,410,410,410,410,410,410,410,410,410,410,410,409,409,409,409,409,409,409,409,409,409,409,409,409,409,409,409,409,409,409,409,409,409,409,409,409,410,409,409,410,409,409,409,409,409,409,409,409,409,409,409,409,409,409,409,408,408,408,408,408,408,408,408,408,408,407,407,407,407,407,407,407,407,407,406,406,406,406,406,406,406,406,406,405,404,404,403,403,0,0,393,393,393,0,387,386,386,384,383,383,382,382,381,381,381,381,381,381,381,382,382,382,382,382,382,383,383,383,382,382,382,381,381,381,380,379,379,379,378,378,378,378,378,378,378,378,378,378,379,380,381,381,383,384,386,386,388,390,392,392,394,396,397,397,399,400,401,401,402,403,404,404,404,405,405,405,405,405,405,405,405,405,405,404,404,404,404,404,404,404,404,403,403,403,403,403,403,403,403,403,403,403,403,403,403,403,403,403,403,403,403,403,403,403,403,403,403,403,403,403,403,403,403,403,403,403,403,403,403,403,403,403,403,403,403,403,403,403,403,403,403,404,404,404,403,403,403,403,403,403,403,403,403,403,403,403,403,403,403,403,403,403,403,403,403,403,402,402,402,402,402,402,402,401,401,401,401,401,401,401,401,401,402,402,402,402,402,402,402,402,402,402,402,402,402,403,403,403,403,403,403,403,402,402,402,402,402,402,402,402,402,402,401,401,401,401,401,401,400,400,0,0,0,0,0,0,0,0,0,0,0,0,0,0,0,0,0,0,0,0,0,0,0,0,0,0,0,333,333,333,333,333,333,333,333,334,334,334,334,334,334,334,335,0,0,0,0,0,0,0,0,0,0,0,0,0,0,372,372,372,0,0,0,0,0,385,385,386,386,387,388,388,388,389,389,389,390,390,390,390,390,390,390,391,391,391,390,390,390,390,391,391,391,391,391,391,391,391,391,391,391,391,391,391,391,391,391,391,391,0,0,0,0,0,0,0,0,0,0,0,0,0,0,0,0,387,387,387,387,0,0,0,0,0,0,0,0,0,0,0,0,0,0,0,0,0,0,0,390,390,390,390,389,389,389,389,389,389,389,389,389,389,389,388,388,388,388,388,389,389,389,389,389,389,389,389,389,389,389,389,388,388,388,388,388,388,387,387,387,386,386,385,385,384,383,383,382,381,381,381,380,380,378,377,377,377,376,376,376,376,375,375,375,375,0,0,0,0,0,0,0,0,0,0,0,0,0,0,0,0,0,0,0,0,0,0,0,0,0,0,0,0,0,0,331,331,331,331,331,331,331,330,330,330,330,330,330,330,330,394,394,394,394,395,395,395,396,396,396,396,396,396,396,396,396,396,396,396,396,396,396,396,396,396,396,396,396,396,396,395,395,395,395,394,394,394,394,394,394,394,394,394,394,394,394,394,394,394,395,395,395,395,395,395,395,395,395,395,394,394,394,394,394,394,394,394,394,394,394,394,394,394,394,395,395,395,395,395,395,395,395,395,395,395,395,395,395,395,395,395,395,396,396,396,396,396,395,395,396,396,396,395,395,395,394,394,394,394,394,394,394,393,393,393,393,393,393,393,393,394,393,393,393,393,393,392,392,391,390,390,389,388,387,387,386,385,385,383,382,382,380,377,377,375,375,0,372,370,370
411,411,411,411,411,411,411,411,411,411,411,411,411,411,411,411,411,411,411,411,410,410,410,410,410,410,410,410,409,409,409,409,409,409,409,409,409,409,409,409,409,409,409,409,409,409,409,409,409,409,409,409,410,410,410,410,410,410,410,410,410,410,410,410,410,410,410,410,409,409,409,409,409,409,409,409,409,409,409,409,409,409,409,409,409,409,409,409,409,409,409,409,409,410,409,409,410,409,409,409,409,409,409,409,409,409,409,409,409,409,409,409,408,408,408,408,408,408,408,408,408,408,407,407,407,407,407,407,407,407,407,406,406,406,406,406,406,406,406,406,405,404,404,402,402,0,0,393,393,393,0,387,386,386,384,383,383,382,382,381,381,381,381,381,381,381,382,382,382,382,382,382,383,383,382,382,382,382,381,381,381,380,379,379,379,378,378,378,378,378,378,378,378,378,378,379,380,381,381,382,384,385,385,387,389,392,392,394,396,397,397,399,400,401,401,402,403,404,404,404,405,405,405,405,405,405,405,405,405,405,404,404,404,404,404,404,404,404,403,403,403,403,403,403,403,403,403,403,403,403,403,403,403,403,403,403,403,403,403,403,403,403,403,403,403,403,403,403,403,403,403,403,403,403,403,403,403,403,403,403,403,403,403,403,403,403,403,403,403,403,404,403,403,403,403,403,403,403,403,403,403,403,403,403,403,403,403,403,403,403,403,403,403,402,402,402,402,402,402,402,401,401,401,401,401,401,401,401,401,402,402,402,402,402,402,402,402,402,402,402,402,402,403,403,403,403,403,403,403,402,402,402,402,402,402,402,402,402,402,401,401,401,401,401,401,400,400,0,0,0,0,0,0,0,0,0,0,0,0,0,0,0,0,0,0,0,0,0,0,0,0,0,0,0,333,333,333,333,333,333,333,333,334,334,334,334,334,334,334,335,335,0,0,0,0,0,0,0,0,0,0,0,0,0,372,372,372,0,0,0,0,0,385,385,386,386,387,388,388,388,389,389,389,390,390,390,390,390,390,390,391,391,391,390,390,390,390,391,391,391,391,391,391,391,391,391,391,391,391,391,391,391,391,391,391,391,391,391,0,0,0,0,0,0,0,0,0,0,0,0,387,387,387,387,387,387,388,388,388,388,388,388,389,0,0,0,0,0,0,0,0,0,0,389,389,389,389,390,389,389,389,389,389,389,389,389,389,388,388,388,388,388,388,388,388,388,388,389,389,389,389,389,389,389,389,389,389,388,388,388,388,388,388,387,387,387,387,386,385,385,385,384,384,382,382,382,381,380,380,379,378,378,377,376,376,376,376,376,376,376,0,0,0,0,0,0,0,0,0,0,0,0,0,0,0,0,0,0,0,0,0,0,0,0,0,0,0,0,0,0,332,332,332,331,331,331,331,331,330,330,330,330,330,330,330,330,394,394,394,394,395,395,395,396,396,396,396,396,396,396,396,396,396,396,396,396,396,396,396,396,396,396,396,396,396,396,396,395,395,395,394,394,394,394,394,394,394,394,394,394,394,394,394,394,394,394,394,394,395,395,395,395,395,395,395,395,395,395,395,394,394,394,394,394,394,394,394,395,395,395,395,395,395,395,395,395,395,395,395,395,395,395,395,395,395,395,395,395,395,395,395,395,395,395,395,395,395,395,395,395,395,394,394,394,394,394,394,394,393,393,393,393,393,393,393,393,394,393,393,393,393,393,392,392,392,391,390,390,389,387,387,387,385,385,384,382,382,380,377,377,377,0,0,371,370,370
411,411,411,411,411,411,411,411,411,411,411,411,411,411,411,411,411,411,411,411,410,410,410,410,410,410,410,410,409,409,409,409,409,409,409,409,409,409,409,409,409,409,409,409,409,409,409,409,409,409,409,409,410,410,410,410,410,410,410,410,410,410,410,410,410,410,410,410,409,409,409,409,409,409,409,409,409,409,409,409,409,409,409,409,409,409,409,409,409,410,410,410,410,410,410,410,410,409,409,409,409,409,409,409,409,409,409,409,409,409,409,409,409,409,409,408,408,408,408,408,408,408,408,408,408,407,407,407,407,407,407,407,407,407,407,407,407,406,406,406,404,403,403,401,401,0,395,395,0,0,0,387,386,386,384,383,383,383,382,381,381,381,381,381,381,381,382,382,382,382,382,382,383,383,382,382,382,382,381,381,381,380,380,380,379,379,379,378,378,378,378,378,379,379,379,379,380,381,381,382,383,383,385,387,389,391,391,393,395,396,396,398,400,401,401,402,403,404,404,405,405,405,405,405,405,405,405,405,405,405,404,404,404,404,404,404,404,404,403,403,403,403,403,403,403,403,403,403,403,403,403,403,403,403,403,403,403,403,403,403,403,403,403,403,403,403,403,403,403,403,403,403,403,403,403,403,403,403,403,403,403,403,403,403,403,403,403,403,403,403,403,404,404,404,404,404,404,403,403,403,403,403,403,403,403,403,403,403,403,403,403,403,403,403,402,402,402,402,402,402,401,401,401,401,401,401,401,401,401,401,401,402,402,402,402,402,402,402,402,402,402,402,403,403,403,403,403,403,403,403,403,403,402,402,402,402,402,402,402,402,402,401,401,401,401,401,0,0,0,0,0,0,0,0,0,0,0,0,0,0,0,0,0,0,0,0,0,0,0,0,0,0,0,0,333,333,333,333,333,333,333,333,334,334,334,334,335,335,335,335,335,336,336,0,0,0,0,0,0,0,0,0,0,0,0,0,0,0,0,0,0,0,0,388,388,388,388,388,388,389,389,390,390,390,390,390,390,390,391,391,391,391,391,390,390,391,391,391,391,391,391,391,391,391,391,391,391,391,391,391,391,391,391,391,391,390,390,390,390,390,390,390,390,0,0,0,0,388,388,0,387,387,387,388,387,387,388,388,388,388,388,388,389,389,389,389,0,0,0,0,0,0,0,389,389,389,389,389,389,389,389,389,389,389,389,389,388,388,388,388,388,388,388,388,388,388,388,389,389,389,389,389,389,389,389,389,389,388,388,388,388,388,388,387,387,387,387,386,385,385,385,384,384,383,382,382,381,380,380,379,378,378,377,377,376,376,376,376,0,0,0,0,0,0,0,0,0,0,0,0,0,0,0,0,0,0,0,0,0,0,0,0,0,0,0,0,0,0,0,0,332,332,332,332,331,331,331,331,331,331,331,330,330,330,330,330,330,330,394,394,395,395,395,396,396,396,396,396,396,396,396,396,396,396,396,396,396,396,396,396,396,396,396,396,396,396,396,396,396,395,395,394,394,394,394,394,394,394,394,394,394,394,394,394,394,394,394,394,394,394,394,395,395,395,395,395,395,395,395,395,395,394,394,395,395,395,395,395,395,395,395,395,395,395,395,395,395,395,395,395,395,395,395,395,395,395,395,395,395,395,395,395,395,395,395,395,395,395,395,395,394,394,394,394,394,394,394,393,393,393,393,393,393,393,393,393,394,394,393,393,393,393,393,393,392,391,390,390,389,388,388,387,386,386,384,383,383,380,377,377,377,0,0,371,370,370
411,411,411,411,411,411,411,411,411,411,411,411,411,411,411,411,411,411,411,411,410,410,410,410,410,410,410,410,410,410,410,410,410,410,409,409,409,409,410,410,410,410,410,410,410,410,410,410,410,410,409,409,410,410,410,410,410,410,410,410,410,410,410,410,410,410,410,410,409,409,409,409,409,409,409,409,409,409,409,409,409,409,409,409,409,409,410,410,410,410,410,410,410,410,410,410,410,409,409,409,409,409,409,409,409,409,409,409,409,409,409,409,409,409,409,408,408,408,408,408,408,408,408,408,408,408,408,408,407,407,407,407,407,407,407,407,407,406,406,406,404,403,403,401,401,0,395,395,0,0,0,387,386,386,384,383,383,383,382,381,381,381,381,381,381,381,382,382,382,382,382,382,383,383,382,382,382,382,381,381,381,380,380,380,379,379,379,379,379,379,379,379,379,379,379,379,380,381,381,382,383,383,385,387,389,391,391,393,395,396,396,398,400,401,401,402,403,404,404,405,405,405,405,405,405,405,405,405,405,405,405,405,404,404,404,404,404,404,403,403,403,403,403,403,403,403,403,403,403,403,403,403,403,403,403,403,403,403,403,403,403,403,403,403,404,404,404,403,403,403,403,403,403,403,403,403,403,403,403,403,403,403,403,403,403,403,403,403,403,403,403,404,404,404,404,404,404,403,403,403,403,403,403,403,403,403,403,403,403,403,403,403,403,403,402,402,402,402,402,402,402,402,402,401,401,401,401,401,401,401,401,402,402,402,402,402,402,402,402,402,402,402,403,403,403,403,403,403,403,403,403,403,403,403,402,402,402,402,402,402,402,402,402,402,401,401,0,0,0,0,0,0,0,0,0,0,0,0,0,0,0,0,0,0,0,0,0,0,0,0,0,0,0,0,0,333,333,333,333,333,334,334,334,334,334,334,335,335,335,335,336,336,336,0,0,0,0,0,0,0,0,0,0,0,0,0,0,0,0,0,0,0,0,388,388,388,388,389,389,389,390,390,390,390,390,390,390,390,391,391,391,391,391,391,391,391,391,391,391,391,391,391,391,391,391,391,391,391,391,391,391,391,391,391,391,390,390,390,390,390,390,390,390,0,0,0,0,388,388,0,387,387,387,388,388,388,388,388,388,388,388,388,389,389,389,389,0,0,0,0,0,0,0,389,389,389,389,389,389,389,389,389,389,389,389,389,388,388,389,388,388,388,388,388,388,389,389,389,389,389,389,389,389,389,389,389,389,388,388,388,388,388,388,387,387,387,387,386,386,386,385,384,384,383,382,382,381,380,380,379,378,378,377,377,377,0,376,376,0,0,0,0,0,0,0,0,0,0,0,0,0,0,0,0,0,0,0,0,0,0,0,0,0,0,0,0,0,0,0,0,0,0,0,332,331,331,331,331,331,331,331,331,331,330,330,330,330,330,395,395,395,395,395,396,396,396,396,396,396,396,396,396,396,396,396,396,396,396,396,396,396,396,396,396,396,396,396,396,396,395,395,395,395,394,394,394,394,394,394,394,394,394,394,394,394,394,394,394,394,394,394,395,395,395,395,395,395,395,395,395,395,395,395,395,395,395,395,395,395,395,395,395,395,395,396,395,395,395,396,396,395,395,395,395,395,395,395,395,395,395,395,395,395,395,395,395,395,395,395,395,394,394,394,394,394,394,394,393,393,393,393,393,393,393,393,393,394,394,394,393,393,393,393,393,392,391,390,390,390,389,389,388,387,387,387,0,0,0,0,0,0,0,0,371,370,370
411,411,411,411,411,411,411,411,411,411,411,411,411,411,411,411,411,411,411,411,410,410,410,410,410,410,410,410,410,410,410,410,410,410,409,409,409,409,410,410,410,410,410,410,410,410,410,410,410,410,409,409,410,410,410,410,410,410,410,410,410,410,410,410,410,410,410,410,409,409,409,409,409,409,409,409,409,409,409,409,409,409,409,409,409,409,410,410,410,410,410,410,410,410,410,410,410,409,409,409,409,409,409,409,409,409,409,409,409,409,409,409,409,409,409,408,408,408,408,408,408,408,408,408,408,408,408,408,407,407,407,407,407,407,407,406,406,406,405,405,403,402,402,400,400,0,394,394,0,389,389,386,385,385,384,383,383,382,382,381,381,381,381,381,381,381,382,382,382,382,382,382,383,383,382,382,382,382,381,381,381,380,380,380,379,379,379,379,379,379,379,378,378,379,379,379,380,381,381,382,383,383,384,386,388,390,390,392,394,396,396,398,399,401,401,402,403,404,404,405,405,405,405,405,405,405,405,405,405,405,405,405,404,404,404,404,404,404,403,403,403,403,403,403,403,403,403,403,403,403,403,403,403,403,403,403,403,403,403,403,403,403,403,403,404,404,404,403,403,403,403,403,403,403,403,403,403,403,403,403,403,403,403,403,403,403,403,403,403,403,403,404,404,403,403,403,403,403,403,403,403,403,403,403,403,403,403,403,403,403,403,403,403,403,402,402,402,402,402,402,402,402,402,401,401,401,401,401,401,401,401,402,402,402,402,402,402,402,402,402,402,402,403,403,403,403,403,403,403,403,403,403,403,403,402,402,402,402,402,402,402,402,402,402,401,401,0,0,0,0,0,0,0,0,0,0,0,0,0,0,0,0,0,0,0,0,0,0,0,0,0,0,0,0,0,333,333,333,333,333,334,334,334,334,334,334,335,335,335,335,336,336,336,0,0,0,0,0,0,0,0,0,0,0,0,0,0,0,0,0,0,0,0,388,388,388,388,389,389,389,390,390,390,390,390,390,390,390,391,391,391,391,391,391,391,391,391,391,391,391,391,391,391,391,391,391,391,391,391,391,391,391,391,391,391,390,390,390,390,390,390,390,390,390,390,0,0,388,387,387,387,387,387,388,388,388,388,388,388,388,388,388,389,389,389,389,389,0,389,389,0,0,0,389,389,389,389,389,389,389,389,389,389,389,389,389,388,388,389,388,388,388,388,388,388,389,389,389,389,389,389,389,389,389,389,389,389,388,388,388,388,388,388,387,387,387,387,386,386,386,385,384,384,383,382,382,381,380,380,379,378,378,377,377,377,0,375,375,0,0,0,0,0,0,0,0,0,0,0,0,0,0,0,0,0,0,0,0,0,0,0,0,0,0,0,0,0,0,0,0,0,0,0,332,331,331,331,331,331,331,331,331,331,330,330,330,330,330,395,395,395,395,395,396,396,396,396,396,396,396,396,396,396,396,396,396,396,396,396,396,396,396,396,396,396,396,396,396,396,395,395,395,395,394,394,394,394,394,394,394,394,394,394,394,394,394,394,394,394,394,394,394,395,395,395,395,395,395,395,395,395,395,395,395,395,395,395,395,395,395,395,395,395,395,395,395,395,395,395,395,395,395,395,395,395,395,395,395,395,395,395,395,395,395,395,395,395,395,394,394,394,394,394,394,394,394,394,393,393,393,393,393,393,393,393,393,394,394,394,393,393,393,393,393,392,391,390,390,390,389,389,388,387,387,387,0,0,0,0,0,0,0,0,371,369,369
411,411,411,411,411,411,411,411,411,411,411,411,411,411,411,411,411,411,411,411,410,410,410,410,410,410,410,410,410,410,410,410,410,410,410,410,410,410,410,410,410,410,410,410,410,410,410,410,410,410,410,410,410,410,410,410,410,410,410,410,410,410,410,410,410,410,410,410,409,409,409,409,409,409,409,409,409,409,409,409,409,409,409,409,409,410,410,410,410,410,410,410,410,410,410,410,410,409,409,409,409,409,409,409,409,409,409,409,409,409,409,409,409,409,409,409,409,408,408,408,408,408,408,408,408,408,408,408,408,408,408,407,407,407,407,406,406,405,404,404,403,402,402,399,399,0,393,393,390,388,388,385,385,385,383,382,382,382,381,381,381,381,381,381,381,381,382,382,382,382,382,382,383,383,382,382,382,382,382,381,381,381,380,380,380,379,379,379,379,379,379,378,378,378,378,379,380,380,380,381,382,382,384,386,388,390,390,392,394,396,396,398,399,401,401,402,403,404,404,404,405,405,405,405,405,405,405,405,405,405,405,405,405,404,404,404,404,404,404,404,404,404,403,403,403,403,403,403,403,403,403,403,403,403,403,403,403,403,404,404,403,403,403,404,404,404,404,403,403,403,403,403,403,403,403,403,403,403,403,403,403,403,403,403,403,403,403,403,403,403,403,404,404,403,403,403,403,403,403,403,403,403,403,403,403,403,403,403,403,403,403,403,403,403,402,402,402,402,402,402,402,402,402,402,402,402,402,402,402,402,402,402,402,402,402,402,402,402,402,402,402,402,403,403,403,403,403,403,403,403,403,403,403,403,403,403,402,402,402,402,402,402,402,402,402,402,0,0,0,0,0,0,0,0,0,0,0,0,0,0,0,0,0,0,0,0,0,0,0,0,0,0,0,0,333,333,333,333,333,333,334,334,334,334,334,334,335,335,335,335,336,0,0,0,0,0,0,0,0,0,0,0,0,0,0,0,0,0,0,0,0,0,0,0,0,389,389,389,389,389,390,390,390,390,390,390,390,391,391,391,391,391,391,391,391,391,391,391,391,391,391,391,391,391,391,391,391,391,391,391,391,391,391,391,391,390,390,390,390,390,390,390,390,390,390,389,389,388,387,387,387,387,388,388,388,388,388,388,388,388,388,388,389,389,389,389,388,388,388,388,389,389,389,389,389,389,389,389,389,389,389,389,389,389,389,389,388,388,388,388,388,388,388,388,389,389,389,389,389,389,389,389,389,389,389,389,388,388,388,388,388,387,387,387,387,387,387,386,386,386,385,384,384,383,382,382,382,380,380,378,377,377,377,376,376,0,375,374,374,374,0,0,0,0,0,0,0,0,0,0,0,0,0,0,0,0,0,0,0,0,0,0,0,0,0,0,0,0,0,0,0,0,0,0,331,331,331,331,330,330,330,330,331,330,330,330,330,330,0,395,395,395,396,396,396,396,396,396,396,396,396,396,396,396,396,396,396,396,396,396,396,396,396,396,396,396,396,396,396,396,395,395,395,395,394,394,394,394,394,394,394,394,394,394,394,394,394,394,394,394,394,394,395,395,395,395,395,395,395,395,395,395,395,395,395,395,395,395,395,395,395,395,395,395,395,395,395,395,395,395,395,395,395,395,395,395,395,395,395,395,395,395,395,395,395,395,395,394,394,394,394,394,394,394,394,394,394,393,393,393,393,393,393,393,393,393,394,394,394,393,393,393,393,393,392,391,390,390,390,389,389,388,387,387,387,0,0,0,0,0,0,0,0,371,369,369
411,411,411,411,411,411,411,411,411,411,411,411,411,411,411,411,411,410,410,410,410,410,410,410,410,410,410,410,410,410,410,410,410,410,410,410,410,410,410,410,410,410,410,410,410,410,410,410,410,410,410,410,410,410,410,410,410,410,410,410,410,410,410,410,410,410,410,410,409,409,409,409,409,409,409,409,409,409,409,409,409,409,410,410,410,410,410,410,409,409,409,410,409,409,409,409,409,409,409,409,409,409,409,409,409,409,409,409,409,409,409,409,409,409,409,409,409,409,408,408,408,408,408,408,408,408,408,408,408,408,408,408,407,407,407,406,406,405,404,404,402,401,401,398,398,0,392,392,390,387,387,385,384,384,382,382,382,381,381,381,380,380,381,381,381,381,381,381,382,382,383,383,383,383,383,383,382,382,382,381,381,381,380,380,380,380,380,379,379,379,379,378,378,378,378,378,379,379,380,381,382,382,384,385,387,387,389,391,393,395,395,397,399,400,400,402,403,404,404,404,405,405,405,405,405,405,405,405,405,405,405,405,405,405,405,404,404,404,404,404,404,404,403,403,404,403,403,404,404,404,403,403,403,404,404,403,403,404,404,404,404,404,404,404,404,404,404,404,404,403,403,403,403,403,403,403,403,403,403,403,403,403,403,403,404,404,403,403,404,403,403,403,403,403,403,403,403,403,403,403,403,403,403,403,403,403,403,403,403,403,403,403,403,403,403,402,402,402,402,402,402,402,402,402,402,402,402,402,402,402,402,402,402,402,402,402,402,402,402,402,402,402,403,403,403,403,403,403,403,403,403,403,403,403,403,403,402,402,402,402,402,402,402,402,402,402,402,402,402,0,0,0,0,0,0,0,0,0,0,0,0,0,0,0,0,0,0,0,0,0,0,0,0,0,333,333,333,333,333,334,334,334,334,334,334,334,335,335,335,335,336,0,0,0,0,0,0,0,0,0,0,0,0,0,0,0,0,0,0,0,0,0,0,388,388,388,389,389,390,390,390,390,390,390,390,391,391,391,391,391,391,391,391,391,391,391,391,391,391,391,391,391,391,391,391,391,391,391,391,391,391,391,391,391,391,390,390,390,390,390,390,390,390,390,390,389,389,388,388,388,388,0,0,0,388,388,388,388,388,388,389,389,389,389,389,389,388,388,388,388,389,389,389,389,389,389,389,389,389,389,389,389,389,389,389,389,389,388,388,388,389,389,389,389,389,389,389,389,389,389,389,389,389,389,389,389,388,388,388,388,388,387,387,387,387,387,387,386,386,386,385,384,384,383,382,382,382,380,380,378,377,377,377,376,376,0,375,374,374,374,0,0,0,0,0,0,0,0,0,0,0,0,0,0,0,0,0,0,0,0,0,0,0,0,0,0,0,0,0,0,0,0,0,0,331,331,331,331,330,330,330,330,331,330,330,330,0,0,0,396,396,396,396,396,396,396,396,396,396,396,396,396,396,396,396,396,396,396,396,396,396,396,396,396,396,396,396,396,396,396,396,395,395,395,395,395,394,394,394,394,394,394,394,394,394,394,394,394,394,394,394,394,395,395,395,395,395,395,395,395,395,395,395,395,395,395,395,395,395,395,395,395,395,395,395,395,395,396,396,396,395,395,395,395,395,395,395,395,395,395,395,395,395,395,395,395,395,394,394,394,394,394,394,394,394,394,394,394,394,394,394,394,394,394,394,394,394,394,394,393,393,393,393,393,392,391,390,390,390,389,389,388,387,387,387,0,0,0,0,0,0,0,0,371,369,369
411,411,411,411,411,411,411,411,411,411,411,411,411,411,411,411,411,410,410,410,410,410,410,410,410,410,410,410,410,410,410,410,410,410,410,410,410,410,410,410,410,410,410,410,410,410,410,410,410,410,410,410,410,410,410,410,410,410,410,410,410,410,410,410,410,410,410,410,410,410,410,410,410,409,409,409,409,409,409,409,409,409,410,410,410,410,410,410,409,409,409,410,409,409,409,409,409,409,409,409,409,409,409,409,409,409,409,409,409,409,409,409,409,409,409,409,409,409,409,409,408,408,408,408,408,408,408,408,408,408,408,408,408,408,407,406,406,406,404,404,402,401,401,398,398,0,392,392,390,387,387,385,384,384,382,382,382,381,381,381,380,380,381,381,381,381,381,381,382,382,383,383,383,383,383,383,382,382,382,382,382,381,381,381,380,380,380,380,379,379,379,378,378,378,378,378,379,379,380,381,382,382,384,385,387,387,389,391,393,395,395,397,399,400,400,402,403,404,404,404,405,405,405,405,405,405,405,405,405,405,405,405,405,405,405,405,404,404,404,404,404,404,404,404,404,404,404,404,404,404,404,404,404,404,404,404,404,404,404,404,404,404,404,404,404,404,404,404,404,403,403,404,403,403,403,403,403,403,403,403,403,403,403,403,404,404,404,404,404,403,403,403,403,403,403,403,403,403,403,403,403,403,403,403,403,403,403,403,403,403,403,403,403,403,403,403,403,403,403,403,403,403,403,403,403,403,403,403,403,403,403,403,402,402,402,403,403,403,403,403,403,403,403,403,403,403,403,404,403,403,403,403,403,403,403,403,402,402,402,402,402,402,402,402,402,402,402,402,402,0,0,0,0,0,0,0,0,0,0,0,0,0,0,0,0,0,0,0,0,0,0,0,0,0,333,333,333,333,333,333,333,333,334,334,334,334,335,335,335,335,336,0,0,0,0,0,0,0,0,0,0,0,0,0,0,0,0,0,0,0,0,0,0,388,388,388,389,389,390,390,390,390,390,391,391,391,391,391,391,391,391,391,391,391,391,391,391,391,391,391,391,391,391,391,391,391,391,391,391,391,391,391,391,390,390,390,390,390,390,390,390,390,390,390,389,389,389,388,388,388,388,0,0,0,388,388,388,388,388,388,389,389,389,389,389,389,388,388,388,388,389,389,389,389,389,389,389,389,389,389,389,389,389,389,389,389,389,388,388,388,389,389,389,389,389,389,389,389,389,389,389,389,389,389,389,389,388,388,388,388,388,387,387,387,387,387,387,386,386,386,385,384,384,383,381,381,381,379,379,378,377,377,376,376,376,0,374,374,374,374,0,0,0,0,0,0,0,0,0,0,0,0,0,0,0,0,0,0,0,0,0,0,0,0,0,0,0,0,0,0,0,0,0,332,331,331,331,331,330,330,330,330,330,330,330,330,0,0,0,396,396,396,396,396,396,396,396,396,396,396,396,396,396,396,396,396,396,396,396,396,396,396,396,396,396,396,396,396,396,396,396,395,395,395,395,395,394,394,394,394,394,394,394,394,393,393,394,394,394,394,394,394,395,395,395,395,395,395,395,395,395,395,395,395,395,395,395,395,395,395,395,395,395,395,395,395,395,396,396,395,395,395,395,395,395,395,395,395,395,395,395,395,395,395,395,395,394,394,394,394,394,394,394,394,394,394,394,394,394,394,394,394,394,394,394,394,394,394,394,393,393,393,393,393,392,391,390,390,390,389,389,388,387,387,387,0,0,0,0,0,0,0,0,371,369,369
411,411,411,411,411,411,411,411,411,411,411,411,411,411,410,410,410,410,410,410,410,410,410,410,410,410,410,410,410,410,410,410,410,410,410,410,410,410,410,410,410,410,410,410,410,410,410,410,410,410,410,410,410,410,410,410,410,410,410,410,410,410,410,410,410,410,410,410,410,410,410,410,410,409,409,409,409,409,409,409,409,409,409,409,409,409,409,409,409,409,409,409,409,409,409,409,409,409,409,409,409,409,409,409,409,409,409,409,409,409,409,409,409,409,409,409,409,409,409,409,408,408,408,408,408,408,408,408,408,408,408,408,408,408,407,406,406,405,404,404,402,400,400,397,397,394,391,391,388,386,386,384,384,384,382,381,381,381,380,380,380,380,380,380,380,381,381,381,382,382,383,383,383,383,383,383,382,382,382,382,382,381,381,381,380,380,380,380,379,379,379,378,378,378,378,378,379,379,380,381,382,382,384,385,387,387,389,391,393,395,395,397,399,400,400,402,403,403,403,404,405,405,405,405,405,405,405,405,405,405,405,405,405,405,405,405,404,404,404,404,404,404,404,404,404,404,404,404,404,404,404,404,404,404,404,404,404,404,404,404,404,404,404,404,404,404,404,404,404,403,403,403,403,403,403,403,403,403,403,403,403,403,403,403,404,404,404,404,404,403,403,403,403,403,403,403,403,403,403,403,403,403,403,403,403,403,403,403,403,403,403,403,403,403,403,403,403,403,403,403,403,403,403,403,403,403,403,403,403,403,403,403,402,402,402,403,403,403,403,403,403,403,403,403,403,403,403,404,403,403,403,403,403,403,403,403,402,402,402,402,402,402,402,402,402,402,402,402,402,0,0,0,0,0,0,0,0,0,0,0,0,0,0,0,0,0,0,0,0,0,0,0,0,0,333,333,333,333,333,333,333,333,334,334,334,334,335,335,336,336,336,0,0,0,0,0,0,0,0,0,0,0,0,378,378,379,380,380,381,0,0,386,386,387,388,388,389,389,389,389,390,390,390,391,391,391,391,391,391,391,391,391,391,391,391,391,391,391,391,391,391,391,391,391,391,391,391,391,391,391,391,391,391,390,390,390,390,390,390,390,390,390,390,390,389,389,389,388,388,388,388,0,0,0,0,388,388,388,389,389,389,389,389,389,389,389,389,389,389,389,389,389,389,389,389,389,389,389,389,389,389,389,389,389,389,389,389,389,389,389,389,389,389,389,389,389,389,389,389,389,389,389,389,389,389,389,388,388,388,388,388,387,387,387,387,387,387,386,385,385,385,384,384,382,381,381,380,379,379,378,377,377,376,375,375,375,374,374,374,373,372,372,372,0,0,0,0,0,0,0,0,0,0,0,0,0,0,0,0,0,0,0,0,0,0,0,0,0,0,0,0,0,0,332,331,331,331,330,330,330,330,330,330,330,330,330,0,0,397,396,396,396,396,396,396,396,396,396,396,396,396,396,396,396,396,396,396,396,396,396,396,397,397,396,396,396,396,396,396,396,396,396,396,395,395,395,394,394,394,394,394,394,394,394,393,393,394,394,394,394,394,394,395,395,395,395,395,395,395,395,395,395,395,395,395,394,394,394,394,395,395,395,395,395,395,395,395,396,396,395,395,395,395,395,395,395,395,395,395,395,395,395,395,395,394,394,394,394,394,394,394,394,394,394,394,394,394,394,394,394,394,394,394,394,394,394,394,394,393,393,393,393,392,392,392,391,390,390,390,389,389,388,387,387,387,387,0,0,0,0,0,0,0,371,370,370
411,411,411,411,411,411,411,411,411,411,411,411,411,410,410,410,410,410,410,410,410,410,410,410,410,410,410,410,410,410,410,410,410,410,410,410,410,410,410,410,410,410,410,410,411,410,410,410,410,410,410,410,410,410,410,410,410,410,410,410,410,410,410,410,410,410,410,410,410,410,410,410,410,410,410,409,409,409,409,409,409,409,409,409,409,409,409,409,409,409,409,409,409,409,409,409,409,409,409,409,409,409,409,409,409,409,409,409,409,409,409,409,409,409,409,409,409,409,409,409,408,408,408,408,408,408,408,408,408,408,408,408,408,408,407,406,406,405,404,404,401,399,399,395,395,392,389,389,388,385,385,384,383,383,382,381,381,380,380,380,379,379,380,380,380,380,381,381,381,382,383,383,383,383,383,383,383,383,382,382,382,382,381,381,381,380,380,380,379,379,379,378,378,378,378,378,379,379,380,381,382,382,384,385,387,387,389,391,393,395,395,397,399,400,400,402,403,403,403,404,405,405,405,405,405,405,405,405,405,405,405,405,405,405,405,405,405,405,404,404,404,404,404,404,404,404,404,404,404,404,404,404,404,404,404,404,404,404,404,404,404,404,404,404,404,404,404,404,404,403,403,403,403,403,403,403,403,403,403,403,403,403,404,404,403,403,403,404,404,403,403,403,403,403,403,403,403,403,403,403,403,403,403,403,403,403,403,403,403,403,403,403,403,403,403,403,403,403,403,403,403,403,403,403,403,403,403,403,403,403,403,403,403,403,403,403,403,403,403,403,403,403,403,404,403,403,403,403,403,403,403,403,403,403,403,403,403,403,402,402,402,402,402,402,402,402,402,402,402,0,0,0,0,0,0,0,0,0,0,0,0,0,0,0,0,0,0,0,0,0,0,0,0,0,333,333,333,333,333,333,333,333,334,334,334,334,335,335,336,336,0,0,0,0,0,0,0,0,0,0,0,0,0,378,378,379,380,380,381,383,0,386,386,387,388,388,389,389,389,389,390,390,390,391,391,391,391,391,391,391,391,391,391,391,391,391,391,391,391,391,391,391,391,391,391,391,391,391,391,391,391,391,391,390,390,390,390,390,390,390,390,0,0,0,0,0,0,0,0,0,0,0,0,0,0,389,389,389,389,389,389,389,389,389,389,389,389,389,389,389,389,389,389,389,389,389,389,389,389,389,389,389,389,389,389,389,389,389,389,389,389,389,389,389,389,389,389,389,389,389,389,389,389,389,389,389,388,388,388,388,388,388,388,387,387,387,387,386,385,385,385,384,384,382,381,381,380,378,378,378,377,377,376,375,375,374,374,373,373,373,372,372,372,0,0,0,0,0,0,0,0,0,0,0,0,0,0,0,0,0,0,0,0,0,0,0,0,0,0,0,0,331,331,331,331,331,331,330,330,330,330,330,330,330,330,330,397,397,397,396,396,396,396,396,396,396,396,396,396,395,395,395,395,396,396,396,396,396,396,396,396,397,397,396,396,396,396,396,396,396,396,396,396,396,395,395,395,394,394,394,394,394,394,394,393,393,394,394,394,394,394,395,395,395,395,395,395,395,395,395,395,395,395,395,394,394,394,394,394,394,395,395,395,395,395,395,395,395,396,396,395,395,395,395,395,395,395,395,395,395,395,395,395,395,394,394,394,394,394,394,394,394,394,394,394,394,394,394,394,394,394,394,394,394,394,394,394,394,393,393,393,393,392,392,392,391,390,390,390,389,389,388,388,388,387,385,385,383,380,380,377,377,0,372,370,370
411,411,411,411,411,411,411,411,411,411,411,411,411,410,410,410,410,410,410,410,410,410,410,410,410,410,410,410,410,410,410,410,410,410,410,410,410,410,410,410,410,411,411,411,411,411,411,411,410,410,410,410,410,410,410,410,410,410,410,410,410,410,410,410,410,410,410,410,410,410,410,410,410,410,410,409,409,409,409,409,409,409,409,409,409,409,409,409,409,409,409,409,409,409,409,409,409,409,409,409,409,409,409,409,409,409,409,409,409,409,409,409,409,409,409,409,409,409,409,409,408,408,408,408,408,408,408,408,408,408,408,408,408,408,407,406,406,405,404,404,401,399,399,395,395,392,389,389,389,385,385,384,383,383,382,381,381,380,380,380,379,379,380,380,380,380,381,381,381,382,383,383,383,383,383,383,383,383,383,382,382,382,381,381,381,380,380,380,380,379,379,378,378,378,378,378,379,379,380,381,382,382,384,385,387,387,389,391,393,395,395,397,399,400,400,402,403,403,403,404,405,405,405,405,405,405,405,405,405,406,405,405,405,405,405,405,405,405,405,404,404,404,404,404,404,404,404,404,404,404,404,404,404,404,404,404,404,404,404,404,404,404,404,404,404,404,404,404,404,404,404,404,403,403,403,403,403,403,403,403,404,404,404,404,403,403,403,404,404,403,403,403,403,403,403,403,403,403,403,403,403,403,403,403,403,403,403,403,403,403,403,403,403,403,403,403,403,403,403,403,403,403,403,404,404,404,404,404,403,403,403,404,403,403,403,0,0,403,403,0,0,403,403,404,403,403,403,403,403,403,403,403,403,403,403,403,403,403,402,402,403,402,402,402,402,402,402,403,403,0,0,0,0,0,0,0,0,0,0,0,0,0,0,0,0,0,0,0,0,0,0,0,0,0,333,333,333,333,333,333,333,333,334,334,334,334,0,0,0,0,0,0,0,0,0,0,0,0,0,0,0,0,0,378,378,380,381,381,381,383,0,0,387,387,388,388,389,389,390,390,390,390,390,391,391,391,391,391,391,391,391,391,391,391,391,391,391,391,391,391,391,391,391,391,391,391,391,391,391,391,391,391,391,390,390,390,390,390,390,390,390,0,0,0,0,0,0,0,0,0,0,0,0,0,0,0,389,389,389,389,389,389,389,389,389,389,389,389,389,389,389,389,389,389,389,389,389,389,389,389,389,389,389,389,389,389,389,389,389,389,389,389,389,389,389,389,389,389,389,389,389,389,389,389,389,389,388,388,388,388,388,388,388,387,387,387,387,386,385,385,385,384,384,382,381,381,380,378,378,378,377,377,376,375,375,374,374,373,373,373,372,372,372,0,0,0,0,0,0,0,0,0,0,0,0,0,0,0,0,0,0,0,0,0,0,0,0,0,0,0,0,331,331,331,331,331,331,330,330,330,330,330,330,330,330,330,397,397,397,396,396,396,396,396,396,396,396,396,396,395,395,395,395,396,396,396,396,396,396,396,396,397,397,396,396,396,396,396,396,396,396,396,396,396,395,395,395,394,394,394,394,394,394,394,394,394,394,394,394,394,394,395,395,395,395,395,395,395,395,395,395,395,395,395,394,394,394,394,394,394,395,395,395,395,395,395,395,395,396,396,396,396,395,395,395,395,395,395,395,395,395,395,395,395,394,394,394,394,394,394,394,394,394,394,394,394,394,394,394,394,394,394,394,394,394,394,394,394,393,393,393,393,392,392,392,391,390,390,390,389,389,388,388,388,387,385,385,383,380,380,377,377,0,0,371,371
411,411,411,411,411,411,411,411,411,411,411,410,410,410,410,410,410,410,410,410,410,410,410,410,410,410,410,410,410,410,410,410,410,410,410,410,410,410,410,410,410,411,411,411,411,411,411,411,410,410,410,410,410,410,410,410,410,410,410,410,410,410,410,410,410,410,410,410,410,410,410,410,410,410,410,409,409,409,409,409,409,409,409,409,409,409,409,409,409,409,409,409,409,409,409,409,409,409,409,409,409,409,409,409,409,409,409,409,409,409,409,409,409,409,409,409,409,409,408,408,408,408,408,408,408,408,408,408,408,408,408,408,407,407,406,406,406,405,403,403,401,399,399,395,395,392,389,389,389,385,385,383,382,382,381,380,380,380,379,379,379,379,379,380,380,380,381,381,381,382,383,383,383,383,383,383,383,383,383,382,382,382,381,381,381,380,380,380,379,379,379,378,378,378,378,378,379,379,380,381,382,382,384,385,387,387,389,391,393,395,395,397,399,400,400,402,403,403,403,404,405,405,405,405,405,405,405,405,405,406,405,405,405,405,405,405,405,405,405,404,404,404,404,404,404,404,404,404,404,404,404,404,404,404,404,404,404,404,404,404,404,404,404,404,404,404,404,404,404,404,404,404,403,403,403,403,403,403,403,403,404,404,404,403,403,403,403,403,403,403,403,403,403,403,403,403,403,403,403,403,403,403,403,403,403,403,403,403,403,403,403,403,403,403,403,403,403,403,403,403,403,403,403,404,404,404,404,404,403,403,403,404,403,403,403,0,0,403,403,0,0,403,403,403,403,403,403,403,403,403,403,403,403,403,403,403,403,403,402,402,403,402,402,402,402,402,402,403,403,0,0,0,0,0,0,0,0,0,0,0,0,0,0,0,0,0,0,0,0,0,0,0,333,333,333,333,333,333,333,333,333,333,334,334,334,334,0,0,0,0,0,0,0,0,0,0,0,0,0,0,0,376,376,376,378,380,381,381,381,383,385,385,386,387,388,388,388,389,390,390,390,390,390,391,391,391,391,391,391,391,391,391,391,391,391,391,391,391,391,391,391,391,391,391,391,391,391,391,391,391,391,391,391,390,390,390,390,390,390,390,390,390,389,389,389,389,0,389,389,389,389,389,390,390,390,390,389,389,389,389,389,389,389,389,389,389,389,389,389,389,389,389,389,389,389,389,389,389,389,389,389,389,389,389,389,389,389,389,389,389,389,389,389,389,389,389,389,389,389,389,389,389,389,389,389,389,388,388,388,388,388,388,388,387,387,387,387,386,385,385,385,384,384,382,381,381,380,378,378,378,377,377,376,375,375,374,374,373,373,373,372,372,372,0,0,0,0,0,0,0,0,0,0,0,0,0,0,0,0,0,0,0,0,0,0,0,0,0,0,0,0,331,331,331,331,331,331,330,330,330,330,330,330,330,330,330,397,397,397,396,396,396,396,396,396,396,396,396,395,395,395,395,395,396,396,396,396,396,396,396,396,397,397,396,396,396,396,396,396,396,396,396,396,396,395,395,395,394,394,394,394,394,394,394,394,394,394,394,394,394,394,395,395,395,395,395,395,395,395,395,395,395,395,395,394,394,394,394,394,394,395,395,395,395,395,395,395,395,396,396,396,396,395,395,395,395,395,395,395,395,395,395,395,395,394,394,394,394,394,394,394,394,394,394,394,394,394,394,394,394,394,394,394,394,394,394,394,394,393,393,393,393,392,392,391,391,390,390,390,389,389,388,387,387,387,385,385,383,380,380,377,377,0,0,371,371
411,411,412,411,411,411,411,411,411,411,411,410,410,410,410,410,410,410,410,410,410,410,410,410,410,410,410,410,410,410,410,410,410,410,410,410,411,411,411,411,411,411,411,411,411,411,411,411,411,411,410,410,410,410,410,410,410,410,410,410,410,410,410,410,410,410,410,410,410,410,410,410,410,410,410,410,410,409,409,409,409,409,409,409,409,409,409,409,409,409,409,408,408,408,408,408,408,408,408,408,408,408,408,408,408,409,409,409,409,409,409,409,409,409,409,409,409,408,408,408,408,408,408,408,408,408,408,408,408,408,408,408,407,407,406,406,406,405,403,403,401,399,399,399,0,392,389,389,386,384,384,382,381,381,380,380,380,379,379,379,379,379,379,379,379,380,381,381,381,382,383,383,383,384,384,383,383,383,383,382,382,382,381,381,381,380,380,380,379,379,379,378,378,378,378,378,379,379,380,381,382,382,384,385,387,387,389,391,393,395,395,397,399,400,400,402,403,403,403,404,405,405,405,405,405,405,405,405,405,405,406,406,405,405,405,405,405,405,405,405,405,405,405,404,404,404,404,404,404,404,404,404,404,404,404,404,404,404,404,404,404,404,404,404,404,404,404,404,404,404,404,404,404,404,404,404,404,404,404,404,404,404,404,403,403,403,403,403,403,403,403,403,403,403,403,403,403,403,403,403,403,403,403,403,403,403,403,403,403,403,403,403,403,402,402,403,403,403,403,403,403,403,404,404,404,404,404,404,404,404,404,404,404,404,403,403,403,403,403,403,403,403,403,403,403,403,403,403,403,403,403,403,403,403,403,403,403,403,402,402,402,402,403,403,403,403,403,403,403,0,0,0,0,0,0,0,0,0,0,0,0,0,0,0,0,0,0,0,0,0,0,0,333,333,333,333,333,333,333,333,333,333,333,334,0,0,0,0,0,0,0,0,0,0,0,0,0,0,0,374,374,376,376,376,379,380,381,381,381,383,384,384,386,387,388,388,388,389,389,389,390,390,390,391,391,391,391,391,392,392,392,392,392,392,391,391,391,391,391,391,391,391,391,391,391,391,391,391,391,391,391,391,391,390,390,390,390,390,390,390,390,389,389,389,389,389,0,389,389,389,389,389,390,390,389,389,389,389,389,389,389,389,389,389,389,389,389,389,389,389,389,389,389,389,389,389,389,389,389,389,389,389,389,389,389,389,389,389,389,389,389,389,389,389,389,389,389,389,389,389,389,389,389,389,389,389,388,388,388,388,388,388,388,388,387,387,387,386,385,385,384,383,383,382,381,381,380,378,378,378,377,377,376,375,375,374,374,373,373,373,372,372,372,0,0,0,0,0,0,0,0,0,0,0,0,0,0,0,0,0,0,0,0,0,0,0,0,0,0,0,0,333,333,0,0,331,331,330,330,330,330,330,330,330,330,330,330,330,397,397,397,396,396,396,396,396,396,396,395,395,395,395,395,396,396,396,396,396,396,396,396,397,397,396,396,396,396,396,396,396,396,396,396,396,395,395,395,395,394,394,394,394,394,394,394,394,394,394,394,395,395,395,395,395,395,395,395,395,395,395,395,395,394,394,394,394,394,394,394,394,394,395,395,395,395,395,395,395,396,396,396,396,396,396,395,395,395,395,395,395,395,395,395,395,395,395,394,394,394,394,394,394,394,394,394,394,394,394,394,394,394,394,394,394,394,394,394,394,393,393,393,393,392,392,391,391,390,390,390,389,389,388,387,387,387,385,385,384,381,381,377,375,375,373,371,371
411,411,412,411,411,411,411,411,411,411,411,411,411,410,410,410,410,410,410,410,410,410,410,410,410,411,411,410,410,410,410,411,411,411,411,411,411,411,411,411,411,411,411,411,411,411,411,411,411,411,410,410,410,410,410,410,410,410,410,410,410,410,410,410,410,410,410,410,410,410,410,411,410,410,410,410,410,410,410,410,409,409,409,409,409,409,409,409,409,409,409,408,408,408,408,408,408,408,408,408,408,408,408,408,408,409,409,409,409,409,409,409,409,409,409,409,409,408,408,408,408,408,408,408,408,408,408,408,408,408,408,408,407,407,406,406,406,405,405,0,0,0,0,0,0,0,0,0,386,384,384,382,381,381,380,380,380,379,379,379,379,379,379,379,379,380,381,381,381,382,383,383,383,384,384,384,383,383,383,382,382,382,381,381,381,380,380,380,379,379,379,378,378,378,378,378,379,379,380,381,382,382,384,385,387,387,390,392,394,396,396,397,399,400,400,402,403,403,403,404,405,405,405,405,405,405,405,406,405,405,406,406,406,405,405,405,405,405,405,405,405,405,405,404,404,404,404,404,404,404,404,404,404,404,404,404,404,404,404,404,404,404,404,404,404,404,404,404,404,404,404,404,404,404,404,404,404,404,404,404,404,404,404,403,403,403,403,403,403,403,403,403,403,403,403,403,403,403,403,403,403,403,403,403,403,403,403,403,403,403,403,403,403,402,402,403,403,403,403,403,403,403,404,404,404,404,404,404,404,404,404,404,404,404,403,403,403,403,403,403,403,403,403,403,403,403,403,403,403,403,403,403,403,403,403,403,403,403,403,402,402,402,403,403,0,0,0,0,0,0,0,0,0,0,0,0,0,0,0,0,0,0,0,0,0,0,0,0,0,0,0,0,0,0,333,333,333,333,333,333,333,333,333,334,0,0,0,0,0,0,0,0,0,0,0,0,0,0,0,374,374,376,376,376,379,381,381,381,382,383,384,384,386,387,388,388,388,389,389,389,390,390,390,391,391,391,391,392,392,392,392,392,392,392,392,392,392,391,391,391,391,391,391,391,391,391,391,391,391,391,391,391,391,390,390,390,390,390,390,390,390,389,389,389,389,389,0,0,389,389,389,389,390,390,389,389,389,389,389,389,389,389,389,389,389,389,389,389,389,389,389,389,389,389,389,389,389,389,389,389,389,389,389,389,389,389,389,389,389,389,389,389,389,389,389,389,389,389,389,389,389,389,389,389,389,389,388,388,388,388,388,388,388,388,387,387,387,386,386,386,384,383,383,382,381,381,380,379,379,378,377,377,376,375,375,374,374,373,373,373,372,372,372,0,0,0,0,0,0,0,0,0,0,0,0,0,0,0,0,0,0,0,0,0,0,0,0,0,0,0,0,0,0,0,0,0,0,331,330,330,330,330,330,330,330,330,330,330,397,397,397,396,396,396,396,396,396,396,395,395,395,395,395,396,396,396,396,396,396,396,396,397,397,396,396,396,396,396,396,396,396,396,396,396,395,395,395,395,395,395,394,394,394,394,394,394,394,394,394,395,395,395,395,395,395,395,395,395,395,395,395,395,394,394,394,394,394,394,394,394,394,395,395,395,395,395,395,395,396,396,396,396,396,396,396,396,396,396,396,396,395,395,395,395,395,395,394,394,394,394,394,394,394,394,394,394,394,394,394,394,394,394,394,394,394,394,394,394,393,393,393,393,392,392,391,391,390,390,390,389,389,389,388,388,387,385,385,384,381,381,377,375,375,373,371,371
411,411,412,412,412,411,411,411,411,411,411,411,411,410,410,410,410,410,410,410,410,410,410,410,411,411,411,411,411,411,411,411,411,411,411,411,411,411,411,411,411,411,411,411,411,411,411,411,411,411,411,410,410,410,410,410,410,410,410,410,410,410,410,410,410,410,410,410,410,411,411,411,410,410,410,410,410,410,410,410,409,409,409,409,409,409,409,409,409,409,409,408,408,408,408,408,408,408,408,408,408,408,408,408,408,409,409,409,409,409,409,409,409,409,408,408,408,408,408,408,408,408,408,408,408,408,408,408,408,408,408,408,407,407,406,406,406,405,404,404,402,399,399,399,0,0,389,389,386,384,384,382,381,381,380,379,379,379,378,378,378,378,379,379,379,380,381,381,381,382,383,383,383,384,384,384,383,383,383,382,382,382,381,381,381,380,380,380,379,379,378,378,378,378,378,378,378,378,380,381,382,382,384,385,387,387,390,392,394,396,396,397,399,400,400,402,403,403,403,404,405,405,405,405,405,405,405,406,405,405,406,406,406,405,405,405,405,405,405,405,405,405,405,404,404,404,404,404,404,404,404,404,404,404,404,404,404,404,404,404,404,404,404,404,404,404,404,404,404,404,404,404,404,404,404,404,404,404,404,404,404,404,404,403,403,403,403,403,403,403,403,403,403,403,402,402,402,402,402,402,403,403,403,403,403,403,403,403,403,403,403,403,403,402,402,403,403,403,403,403,403,403,404,404,404,404,404,404,404,404,404,404,403,403,403,403,403,403,403,403,403,403,403,403,403,403,403,403,403,403,403,403,403,403,403,403,403,403,403,402,402,402,403,403,403,403,403,0,0,0,0,0,0,0,0,0,0,0,0,0,0,0,0,0,0,0,0,0,0,0,0,0,0,0,333,333,333,333,333,333,333,333,333,334,0,0,0,0,0,0,0,0,0,0,0,0,0,0,0,374,374,376,376,376,379,380,381,381,382,383,384,384,385,387,388,388,388,389,389,389,390,390,390,391,391,391,391,391,392,392,392,392,392,392,392,392,392,391,391,391,391,391,391,391,391,391,391,391,391,391,391,391,391,390,390,390,390,390,390,390,390,389,389,389,389,389,389,389,389,389,389,389,389,389,389,389,389,389,389,389,389,389,389,389,389,389,389,389,389,389,389,389,389,389,389,389,389,389,388,388,388,388,388,388,388,388,388,389,389,389,389,389,389,389,389,389,389,389,389,389,389,389,389,389,389,389,388,388,388,388,388,388,388,387,387,387,387,386,385,385,384,383,383,382,381,381,380,379,379,378,377,377,376,375,375,374,374,373,373,373,372,372,372,0,0,0,0,0,0,0,0,0,0,0,0,0,0,0,0,0,0,0,0,0,0,0,0,0,0,0,0,0,0,0,0,0,0,331,330,330,330,330,330,330,330,330,330,330,397,397,397,396,396,396,396,396,396,396,395,395,395,395,395,396,396,396,396,396,396,396,396,396,396,396,396,396,396,396,396,396,396,396,396,396,395,395,395,395,395,395,394,394,394,394,394,394,394,394,394,395,395,395,395,395,395,395,395,395,395,395,395,395,394,394,394,394,394,394,394,394,394,394,394,394,395,395,395,395,395,395,396,396,396,396,396,396,396,396,396,396,395,395,395,395,395,395,394,394,394,394,394,394,394,394,394,394,394,394,394,394,394,394,394,394,394,394,394,394,393,393,393,392,392,392,391,391,390,390,390,389,389,388,388,388,387,385,385,383,381,381,377,375,375,373,371,371
411,411,412,412,412,411,411,411,411,411,411,411,411,410,410,410,410,410,410,410,410,410,410,410,411,411,411,411,411,411,411,410,410,410,410,410,411,411,411,411,411,411,411,411,411,411,411,411,411,411,411,410,410,410,410,410,410,410,410,410,410,410,410,410,410,410,410,410,410,411,411,411,410,410,410,410,410,410,410,410,409,409,409,409,409,409,409,409,409,409,409,408,408,408,408,408,408,408,408,408,408,408,408,408,408,408,408,408,408,409,409,409,409,409,408,408,408,408,408,408,408,408,408,408,408,408,408,408,408,408,408,408,408,408,407,406,406,405,404,404,402,399,399,399,0,0,389,389,386,384,384,381,380,380,379,379,379,378,378,378,378,378,378,378,379,380,381,381,381,382,383,383,384,384,384,384,383,383,383,382,382,382,381,381,381,380,380,380,379,379,378,378,378,378,378,378,378,378,380,381,382,382,384,386,388,390,390,392,394,396,396,398,399,401,401,402,403,403,403,404,405,405,405,405,405,405,405,406,406,406,406,406,406,406,406,405,405,405,405,405,405,405,405,405,405,405,404,404,404,404,404,404,404,404,404,404,404,404,404,404,404,404,404,404,404,404,404,404,404,404,404,404,404,404,404,404,404,404,404,404,404,404,404,403,403,403,403,403,403,403,403,402,402,402,402,402,402,402,402,402,403,403,403,403,403,403,403,403,403,403,402,402,403,402,402,402,402,402,403,403,403,403,404,404,404,404,404,404,404,404,404,404,403,403,403,403,403,403,403,403,403,403,403,403,403,403,403,403,403,403,403,403,403,403,403,403,403,403,403,403,403,403,403,403,403,403,403,403,403,0,0,0,0,0,0,0,0,0,0,0,0,0,0,0,0,0,0,0,0,0,0,0,0,0,333,333,333,333,333,333,333,333,334,334,334,334,0,0,0,0,0,0,0,0,0,0,0,0,0,374,374,376,377,377,379,380,381,381,382,383,384,384,385,386,387,387,388,389,389,389,390,390,390,391,391,391,391,391,392,392,392,392,392,392,392,392,392,392,391,391,391,391,391,391,391,391,391,391,391,391,391,391,391,390,390,390,390,390,390,390,390,389,389,0,389,389,389,389,389,389,389,389,389,389,389,389,389,389,389,389,389,389,389,389,389,389,389,389,389,389,389,389,389,389,389,388,388,388,388,388,388,388,388,388,388,388,388,389,389,389,389,389,389,389,389,389,389,389,389,389,389,389,389,389,389,389,388,388,388,388,388,388,388,387,387,387,387,386,385,385,384,383,383,382,381,381,380,379,379,378,377,377,376,376,375,375,374,374,374,373,372,372,372,0,0,0,0,0,0,0,0,0,0,0,0,0,0,0,0,0,0,0,0,0,0,0,0,0,0,0,0,0,0,0,0,332,332,331,330,330,330,330,330,330,330,330,330,330,330,397,397,397,396,396,396,396,396,396,395,395,395,395,395,396,396,396,396,396,396,396,396,396,396,396,396,396,396,396,396,396,396,396,396,396,396,396,395,395,395,395,395,395,395,394,394,394,395,395,395,395,395,395,395,396,396,396,395,395,395,395,395,395,394,394,394,394,394,394,394,394,394,394,394,394,395,395,395,395,395,395,396,396,396,396,396,396,396,396,396,396,396,395,395,395,395,395,395,394,394,394,394,394,394,394,394,394,394,394,395,395,395,395,394,394,394,394,394,394,393,393,393,392,392,392,391,391,390,390,390,389,389,388,388,388,387,385,385,383,380,380,377,374,374,372,371,371
411,411,412,412,412,411,411,411,411,411,411,411,411,411,410,410,410,410,410,410,410,410,411,411,411,411,411,411,411,411,411,410,410,410,410,410,411,411,411,411,411,411,411,411,411,411,411,411,411,411,411,410,410,410,410,410,410,410,410,410,410,410,410,410,410,410,410,410,410,410,410,410,410,410,410,410,410,410,410,410,409,409,409,409,409,409,409,409,409,409,409,408,408,408,408,408,408,408,408,408,408,408,408,408,408,408,408,408,408,409,409,409,409,409,409,409,409,408,408,408,408,408,408,408,408,408,408,408,408,408,408,408,408,408,407,406,406,405,404,404,403,402,402,399,396,396,390,390,387,384,384,381,380,380,379,379,379,378,378,378,378,378,378,378,379,380,381,381,381,382,383,383,384,384,384,384,383,383,383,382,382,382,381,381,381,380,380,379,379,379,379,378,378,378,378,378,378,378,380,381,382,382,384,386,388,390,390,393,394,396,396,398,399,401,401,402,403,404,404,404,405,405,405,405,405,405,405,406,406,406,406,406,406,406,406,406,406,406,406,405,405,405,405,405,405,405,405,404,404,404,404,404,404,405,405,404,404,404,404,404,404,404,404,404,404,404,404,404,404,404,404,404,404,404,404,404,404,404,404,404,404,404,404,404,403,403,403,403,403,403,403,402,402,402,402,402,402,402,402,402,403,403,403,403,0,0,0,0,403,403,402,402,402,402,402,402,402,402,402,403,403,403,403,403,403,404,404,404,404,404,404,403,403,403,403,403,403,403,403,403,403,403,403,403,403,403,403,403,403,403,403,403,403,403,403,403,403,403,403,403,403,403,403,403,403,403,403,403,403,0,0,0,0,0,0,0,0,0,0,0,0,0,0,0,0,0,0,0,0,0,0,0,0,0,333,333,333,333,333,333,334,334,334,334,334,334,0,0,0,0,0,0,0,0,0,0,0,0,0,375,375,376,377,377,379,381,382,382,382,384,385,385,385,386,387,387,388,388,388,389,390,390,390,390,391,391,391,391,391,391,392,392,392,392,392,392,392,392,391,391,391,392,392,391,391,391,391,391,391,391,391,391,391,390,390,390,390,390,390,390,390,0,0,0,389,389,389,389,389,389,389,389,389,389,389,389,389,389,389,389,389,389,389,389,389,389,389,389,389,389,389,389,389,389,389,388,388,388,388,388,388,388,388,388,388,388,388,388,389,389,389,389,389,389,389,389,389,389,389,389,389,389,389,389,389,389,389,389,388,388,388,388,388,387,387,387,387,386,385,385,384,383,383,382,381,381,380,379,379,378,378,378,377,376,375,375,375,374,374,374,372,372,372,0,0,0,0,0,0,0,0,0,0,0,0,0,0,0,0,0,0,0,0,0,0,0,0,0,0,0,0,0,0,0,332,332,332,331,331,331,330,330,330,330,330,330,330,330,330,0,0,397,396,396,396,396,396,396,396,396,395,395,395,396,396,396,396,396,396,396,396,396,396,396,396,396,396,396,396,396,396,396,396,396,396,396,396,396,395,395,395,395,395,395,395,395,395,395,395,395,395,395,396,396,396,396,396,396,395,395,395,395,394,394,394,394,394,394,394,394,394,394,394,394,395,395,395,395,396,396,396,396,396,396,396,396,396,396,396,396,396,395,395,395,395,395,395,395,394,394,394,394,394,394,394,394,394,394,395,395,395,395,394,394,394,394,394,394,393,393,393,392,392,392,391,391,390,390,390,389,389,389,388,388,387,385,385,382,379,379,377,373,373,372,370,370
411,411,412,412,412,411,411,411,411,411,411,411,411,411,410,410,410,410,410,410,410,410,411,411,411,411,411,411,411,411,411,410,410,410,410,410,411,411,411,411,411,411,411,411,411,411,411,411,411,411,411,410,410,410,410,410,410,410,410,410,410,410,410,410,410,410,410,410,410,410,410,410,410,410,410,410,410,410,410,410,409,409,409,409,409,409,409,409,409,409,409,409,409,409,408,408,408,408,408,408,408,408,408,408,408,408,408,408,408,409,409,409,409,409,409,409,409,409,408,408,408,408,408,408,408,408,408,408,408,408,408,408,408,408,407,406,406,406,405,405,404,402,402,399,396,396,396,0,0,384,384,381,380,380,379,379,379,379,378,378,378,378,379,379,379,380,381,381,381,382,383,383,384,384,384,384,383,383,383,382,382,382,381,381,381,380,380,379,379,379,379,378,378,378,378,378,379,379,380,381,383,383,384,386,388,391,391,393,395,397,397,399,400,401,401,402,403,404,404,404,405,405,405,405,405,405,406,406,406,406,406,406,406,406,406,406,406,406,406,405,405,405,405,405,405,405,405,405,405,405,404,404,404,405,405,405,404,404,404,404,404,404,404,404,404,404,404,404,404,404,404,404,404,404,404,404,404,404,404,404,404,404,404,404,403,403,403,403,403,403,403,403,403,402,402,402,402,402,402,402,403,403,403,403,0,0,0,0,403,403,402,402,402,402,402,402,402,402,402,403,403,403,403,403,403,404,404,404,404,404,404,403,403,403,403,403,403,403,403,403,403,403,403,403,403,403,403,403,403,403,403,403,403,403,403,403,403,403,403,403,403,403,403,403,403,403,403,403,403,0,0,0,0,0,0,0,0,0,0,0,0,0,0,0,0,0,0,0,0,0,0,0,0,0,0,333,333,333,333,334,334,0,0,0,0,0,0,0,0,0,0,0,0,0,0,0,0,0,0,375,375,377,378,378,380,381,382,382,383,384,385,385,385,386,387,387,388,388,388,389,390,390,390,390,391,391,391,391,391,391,392,392,392,392,392,392,392,392,391,391,391,392,392,391,391,391,391,391,391,391,391,391,391,390,390,390,390,390,390,0,0,0,0,0,389,389,389,389,389,389,389,389,389,389,389,389,389,389,389,389,389,389,389,389,389,389,389,389,389,389,389,389,389,389,389,388,388,388,388,388,388,388,388,388,388,388,388,388,389,389,389,389,389,389,389,389,389,389,389,389,389,389,389,389,389,389,389,389,389,389,388,388,388,388,387,387,387,386,385,385,385,384,384,383,381,381,381,380,380,379,378,378,378,377,376,376,375,375,0,0,373,373,373,0,0,0,0,0,0,0,0,0,0,0,0,0,0,0,0,0,0,0,0,0,0,0,0,0,0,0,0,0,0,0,332,332,332,331,331,331,331,330,330,330,330,330,330,330,330,0,0,0,396,396,0,0,396,396,396,396,396,396,396,396,396,396,396,396,397,397,397,397,396,396,396,396,396,396,396,396,396,396,396,396,396,396,396,396,396,396,395,395,395,395,395,395,395,395,396,396,396,396,396,396,396,396,396,396,395,395,395,395,395,394,394,394,394,394,394,394,394,394,394,395,395,395,395,395,396,396,396,396,396,396,396,396,396,396,396,396,396,396,396,395,395,395,395,395,395,395,395,394,394,394,395,395,395,395,395,395,395,395,394,394,394,394,394,394,393,393,393,392,392,392,391,391,390,390,390,389,389,389,388,388,387,387,0,382,379,379,379,373,373,372,370,370
411,411,412,412,412,411,411,411,411,411,411,411,411,411,410,410,410,410,410,410,410,410,410,410,411,411,411,410,410,411,410,410,410,410,410,410,410,410,410,411,411,411,411,411,411,411,411,411,411,411,411,410,410,410,410,410,410,410,410,410,410,410,410,410,410,410,410,410,410,410,410,410,410,410,410,410,410,409,409,409,409,409,409,409,409,409,409,409,409,409,409,409,409,409,408,408,408,408,408,408,408,408,408,408,408,408,408,408,408,409,409,409,409,409,409,409,409,409,408,408,408,408,408,408,408,408,408,408,408,408,408,408,408,408,407,406,406,406,405,405,404,402,402,399,396,396,396,0,0,384,384,381,380,380,379,379,379,378,378,378,378,378,379,379,379,380,380,380,381,382,383,383,383,384,384,384,383,383,383,382,382,382,381,381,381,380,380,379,379,379,379,378,378,378,378,378,379,379,380,381,383,383,384,386,388,391,391,393,395,397,397,399,400,401,401,402,403,404,404,404,405,405,405,405,405,405,406,406,406,406,406,406,406,406,406,406,406,406,406,405,405,405,405,405,405,405,405,405,405,405,404,404,404,405,405,405,404,404,404,404,404,404,404,404,404,404,404,404,404,404,404,404,404,404,404,404,404,404,404,404,404,404,404,404,403,403,403,403,403,403,403,403,403,402,402,402,402,402,402,402,403,403,403,403,403,403,403,403,403,403,402,402,402,402,402,402,402,402,402,402,402,403,403,403,403,403,404,404,404,404,404,403,403,403,403,403,403,403,403,403,403,403,403,403,403,403,403,403,403,403,403,403,403,403,403,403,403,403,403,403,403,403,403,403,403,403,403,403,403,0,0,0,0,0,0,0,0,0,0,0,0,0,0,0,0,0,0,0,0,0,0,0,0,0,0,333,333,333,333,334,334,334,333,333,334,334,334,0,0,0,0,0,0,0,0,0,0,0,0,375,375,377,378,378,380,381,382,382,383,384,384,384,385,386,387,387,388,388,388,389,389,390,390,390,390,391,391,391,391,391,391,392,392,392,392,392,392,391,391,391,391,392,392,391,391,391,391,391,391,391,391,391,391,390,390,390,390,390,390,0,0,0,0,0,389,389,389,389,389,389,389,389,389,389,389,389,389,389,389,389,389,389,389,389,389,389,389,389,389,389,389,389,389,389,389,388,388,388,388,388,388,388,388,388,388,388,388,388,388,388,389,389,389,389,389,389,389,389,389,389,389,389,389,389,389,389,389,389,389,389,388,388,388,388,387,387,387,386,385,385,385,384,384,383,381,381,381,380,380,379,378,378,378,377,376,376,375,375,0,0,373,373,373,0,0,0,0,0,0,0,0,0,0,0,0,0,0,0,0,0,0,0,0,0,0,0,0,0,0,0,0,0,0,0,332,332,332,331,331,331,331,330,330,330,330,330,330,330,330,330,0,0,396,396,0,0,396,396,396,396,396,396,396,396,396,396,396,396,397,397,397,397,396,396,396,396,396,396,396,396,396,396,396,396,396,396,396,396,396,396,395,395,395,395,395,395,395,395,396,396,396,396,396,396,396,396,396,396,395,395,395,395,395,394,394,394,394,394,394,394,394,394,394,395,395,395,395,395,396,396,396,396,396,396,396,396,396,396,396,396,396,396,396,395,395,395,395,395,395,395,395,394,394,394,395,395,395,395,395,395,395,395,394,394,394,394,394,394,393,393,393,392,392,392,391,391,390,390,390,389,389,389,388,388,387,387,0,382,379,379,379,373,373,371,370,370
411,411,412,412,412,411,411,411,411,411,411,411,411,411,411,410,410,410,410,410,410,410,410,410,410,411,411,410,410,411,410,410,410,410,410,410,410,410,410,411,411,411,411,411,411,411,411,411,411,411,410,410,410,410,410,410,410,410,410,410,410,410,410,410,410,410,410,410,410,410,410,410,410,410,410,409,409,409,409,409,409,409,409,409,409,409,409,409,409,409,409,409,409,409,409,409,409,409,408,408,408,408,408,408,408,408,408,408,408,409,409,409,409,409,409,409,409,409,409,409,408,408,408,408,408,408,408,408,408,408,408,408,408,408,407,407,407,407,406,406,405,403,403,401,401,0,0,0,0,0,0,382,380,380,379,379,379,378,378,378,378,378,379,379,379,380,380,380,381,382,382,382,383,384,384,384,383,383,383,382,382,382,381,381,381,380,380,380,379,379,379,379,378,378,378,378,379,379,380,381,383,383,385,387,389,392,392,394,396,398,398,400,401,402,402,402,403,404,404,405,405,405,405,405,406,406,406,406,406,406,406,406,406,406,406,406,406,406,406,406,406,406,406,405,405,405,405,405,405,405,405,405,405,405,405,405,404,404,404,404,404,404,404,404,404,404,404,404,404,404,404,405,404,404,404,404,404,404,404,404,404,404,404,404,403,403,403,403,403,403,403,403,403,403,402,402,402,402,402,402,403,403,403,403,403,403,403,403,403,403,402,402,402,402,402,402,402,402,402,402,402,403,403,403,403,403,404,404,404,404,404,403,403,403,403,403,403,403,403,403,403,403,403,403,403,403,403,403,403,403,403,403,403,403,403,403,403,403,403,403,403,403,403,0,0,0,0,0,0,0,0,0,0,0,0,0,0,0,0,0,0,0,0,0,0,0,0,0,0,0,0,0,0,0,0,333,333,333,333,334,334,334,333,333,333,333,334,334,334,0,0,0,0,0,0,0,0,0,0,0,0,379,379,379,380,381,382,382,383,384,384,384,385,386,387,387,387,388,388,388,389,390,390,390,390,391,391,391,391,391,391,392,392,392,392,392,392,391,391,391,391,391,392,391,391,391,391,391,391,391,391,391,391,390,390,390,390,390,390,390,390,390,390,390,389,389,389,389,389,389,389,389,389,389,389,389,389,389,389,389,389,389,389,389,389,389,389,389,389,389,389,389,389,389,389,388,388,388,388,388,388,388,388,388,388,388,388,388,388,388,389,389,389,389,389,389,389,389,389,389,389,390,390,390,390,390,389,389,389,389,388,388,388,388,387,387,387,386,386,386,385,384,384,383,382,382,381,380,380,379,379,378,378,377,376,376,376,0,0,0,0,0,0,0,0,0,0,0,0,0,0,0,0,0,0,0,0,0,0,0,0,0,0,0,0,0,0,0,0,0,0,0,0,0,332,332,332,331,331,331,331,331,331,331,330,330,330,330,330,330,330,330,0,0,0,397,396,396,396,396,396,396,396,396,396,396,397,397,397,397,397,397,396,396,396,396,396,396,396,396,396,396,396,396,396,396,396,396,396,396,396,396,396,396,396,396,396,396,396,396,396,396,396,396,396,396,396,396,395,395,395,395,395,395,395,394,394,394,394,394,395,395,395,395,395,395,395,396,396,396,396,396,396,396,396,396,396,396,396,396,396,396,396,395,395,395,395,395,395,395,395,395,395,395,395,395,395,395,395,395,395,395,395,395,394,394,394,394,393,393,393,392,392,392,391,391,390,390,389,389,389,389,389,0,0,0,0,0,0,0,0,0,0,370,369,369
411,411,412,412,412,411,411,411,411,411,411,411,411,411,411,410,410,410,410,410,410,410,410,410,410,411,411,411,411,411,411,411,411,411,411,411,411,411,411,411,411,411,411,411,411,411,411,411,411,411,410,410,410,410,410,410,410,410,410,410,410,410,410,410,410,410,410,410,410,410,410,410,410,410,410,409,409,409,409,409,409,409,409,409,409,409,409,409,409,409,409,409,409,409,409,409,409,409,408,408,408,408,408,408,408,408,409,409,409,409,409,409,409,409,409,409,409,409,409,409,409,409,408,408,408,408,408,408,408,408,408,408,408,408,408,407,407,407,406,406,405,404,404,402,402,0,0,0,0,0,0,0,380,380,379,379,379,379,379,379,379,379,379,379,379,380,380,380,381,382,382,382,383,384,384,384,384,384,383,382,382,382,381,381,381,380,380,380,379,379,379,379,379,379,379,0,0,0,0,0,0,0,387,387,392,392,392,0,399,399,399,400,401,402,402,403,404,405,405,405,405,405,406,406,406,406,406,406,406,406,406,406,406,406,406,406,406,406,406,406,406,406,406,405,405,405,405,405,405,405,405,405,405,405,405,405,405,405,405,405,405,405,405,405,405,405,405,404,404,404,405,405,405,405,405,405,404,404,404,404,404,404,404,404,404,404,403,403,403,403,403,403,403,403,403,403,403,403,403,403,403,403,403,403,403,403,403,403,403,403,403,403,403,402,402,402,402,402,402,403,403,403,403,403,403,403,404,404,404,404,404,403,403,403,403,403,403,403,403,403,403,403,403,403,403,403,403,403,403,403,403,403,403,403,403,403,403,403,403,403,403,403,403,0,0,0,0,0,0,0,0,0,0,0,0,0,0,0,0,0,0,0,0,0,0,0,0,0,0,0,0,0,0,0,0,334,334,334,334,334,334,334,333,333,333,333,334,334,334,0,0,0,0,0,0,0,0,0,0,0,0,0,381,381,381,382,382,382,383,384,384,384,385,386,387,387,387,388,388,388,389,390,390,390,390,391,391,391,391,391,391,392,392,392,392,392,392,391,391,391,391,391,392,391,391,391,391,391,391,391,391,391,391,390,390,390,390,390,390,390,390,390,390,390,389,389,389,389,389,389,389,389,389,389,389,389,389,389,389,389,389,389,389,389,389,389,389,389,389,389,389,389,389,389,389,388,388,388,388,388,388,388,388,388,388,388,388,388,388,388,389,389,389,389,389,389,389,389,390,389,389,390,390,390,390,390,389,389,389,389,388,388,388,388,387,387,387,387,386,386,385,384,384,383,382,382,382,380,380,380,379,379,379,378,377,377,377,0,0,0,0,0,0,0,0,0,0,0,0,0,0,0,0,0,0,0,0,0,0,0,0,0,0,0,0,0,0,0,0,0,0,0,0,0,0,332,332,332,331,331,331,331,331,331,330,330,330,330,330,330,330,330,0,0,0,397,397,397,396,396,396,396,396,397,397,397,397,397,397,397,397,397,397,396,396,396,396,396,396,396,396,396,396,396,396,396,396,396,396,396,396,396,396,396,396,396,396,396,396,396,396,396,396,396,396,396,396,396,396,395,395,395,395,395,395,395,394,394,394,394,395,395,395,395,395,395,395,396,396,396,396,396,396,396,396,396,396,396,396,396,396,396,396,395,395,395,395,395,395,395,395,395,395,395,395,395,395,395,395,395,395,395,395,395,394,394,394,394,394,393,393,392,392,392,391,391,390,390,389,389,389,389,389,0,0,0,0,0,0,0,0,0,0,370,369,369
