314.53,314.53,314.53,314.53,314.53,311.73,311.73,311.73,311.73,311.73,314.53,314.53,314.53,314.53,314.53,314.53,314.53,314.53,314.53,314.53,314.53,314.53,314.53,314.53,316.40,316.40,316.40,316.40,316.40,316.40,316.40,316.40,316.40,316.40,316.40,316.40,316.40,316.40,316.40,316.40,316.40,316.40,316.40,316.40,316.40,316.87,316.87,317.33,317.33,317.80,316.87,312.20,308.47,304.73,304.27,304.27,304.27,304.27,304.27,304.27,303.80,303.80,303.80,303.80,303.80,303.80,303.80,303.80,303.80,303.80,303.80,303.80,303.80,303.80,303.80,303.80,303.80,303.80,303.80,303.80,303.80,303.80,303.80,303.80,303.80,303.80,303.80,303.80,303.80,303.80,303.80,303.80,303.80,303.80,303.80,303.80,303.80,303.80,303.80,303.80,303.80,303.80,303.80,303.80,303.80,303.80,303.80,303.80,303.80,303.80,303.80,303.80,303.80,303.80,304.27,304.27,304.73,304.73,305.20,306.13,306.13,306.13,306.60,307.07,307.53,309.87,309.87,313.13,315.47,318.73,318.73,320.60,322.93,323.87,323.87,327.13,330.40,333.67,333.67,343.93,357.00,369.13,369.13,380.80,387.33,393.40,393.40,398.53,373.33,363.53,347.20,347.20,347.20,337.40,337.40,327.60,327.60,327.60,327.60,322.47,322.47,322.47,322.47,322.47,322.47,327.60,327.60,327.60,327.60,327.60,327.60,327.60,327.60,327.60,327.60,327.60,327.60,327.60,327.60,327.60,327.60,327.60,327.60,327.60,327.60,327.60,327.60,327.60,327.60,327.60,327.60,327.60,327.60,327.60,327.60,327.60,327.60,327.60,327.60,327.60,327.60,327.60,327.60,327.60,322.47,322.47,322.47,322.47,322.47,322.47,322.47,322.47,322.47,322.47,318.73,318.73,318.73,322.47,322.47,322.47,322.47,322.47,322.47,322.47,327.60,327.60,327.60,327.60,327.60,327.60,337.40,337.40,337.40,337.40,337.40,337.40,337.40,337.40,337.40,337.40,337.40,337.40,337.40,337.40,337.40,337.40,337.40,337.40,337.40,337.40,337.40,337.40,337.40,337.40,337.40,337.40,337.40,337.40,337.40,337.40,337.40,337.40,337.40,337.40,337.40,337.40,337.40,337.40,337.40,337.40,337.40,347.20,347.20,347.20,347.20,347.20,347.20,347.20,347.20,347.20,347.20,347.20,347.20,347.20,347.20,347.20,347.20,347.20,347.20,347.20,347.20,347.20,347.20,337.40,337.40,337.40,337.40,337.40,337.40,337.40,337.40,337.40,337.40,337.40,337.40,337.40,337.40,337.40,337.40,337.40,337.40,337.40,337.40,337.40,337.40,347.20,347.20,347.20,347.20,347.20,347.20,347.20,347.20,347.20,347.20,347.20,347.20,347.20,347.20,347.20,347.20,347.20,347.20,347.20,346.73,345.80,345.33,344.87,341.60,330.87,325.27,315.47,305.20,303.80,302.87,303.80,302.87,302.87,302.87,302.87,302.87,302.40,302.40,302.87,302.40,302.40,302.40,302.40,302.40,302.40,302.40,302.40,302.40,302.87,302.87,302.87,302.87,302.87,302.87,302.87,302.87,302.87,302.87,302.87,303.33,303.33,303.33,303.33,303.33,303.33,303.33,303.33,303.33,303.33,303.33,303.33,303.33,303.33,303.33,303.80,303.80,303.80,303.80,303.80,304.27,304.27,304.27,304.27,304.27,304.27,304.73,304.73,304.73,305.20,305.67,306.13,306.13,306.13,306.60,306.60,306.60,307.07,307.07,307.07,307.07,307.53,307.53,307.53,307.53,309.87,309.87,307.53,307.53,307.53,308.47,308.47
311.73,311.73,311.73,311.73,311.73,311.73,311.73,311.73,311.73,311.73,311.73,314.53,314.53,314.53,314.53,314.53,314.53,314.53,314.53,314.53,314.53,314.53,314.53,314.53,316.40,316.40,316.40,316.40,316.40,316.40,316.40,316.40,316.40,316.40,316.40,316.40,316.40,316.40,316.40,316.40,316.40,316.40,316.40,316.40,316.87,316.87,316.87,317.33,317.33,317.33,316.40,311.73,308.47,304.27,304.27,304.27,304.27,304.27,304.27,304.27,303.80,303.80,303.80,303.80,303.80,303.80,303.80,303.80,303.80,303.80,303.80,303.80,303.80,303.80,303.80,303.80,303.80,303.80,303.80,303.80,303.80,303.80,303.80,303.80,303.80,303.80,303.80,303.80,303.80,303.80,303.80,303.80,303.80,303.80,303.80,303.80,303.80,303.80,303.80,303.80,303.80,303.80,303.80,303.80,303.80,303.80,303.80,303.80,303.80,303.80,303.80,303.80,303.80,303.80,304.27,304.27,304.73,304.73,305.20,306.13,306.13,306.13,306.60,307.07,307.53,310.80,310.80,313.13,315.47,318.73,318.73,320.60,322.93,322.93,322.93,323.87,330.40,333.67,333.67,343.93,357.00,369.13,369.13,380.80,387.33,393.40,393.40,398.53,373.33,363.53,363.53,347.20,337.40,327.60,327.60,327.60,327.60,327.60,327.60,322.47,322.47,322.47,327.60,327.60,327.60,327.60,327.60,327.60,327.60,327.60,327.60,327.60,327.60,327.60,327.60,327.60,327.60,327.60,327.60,327.60,327.60,327.60,327.60,327.60,327.60,327.60,327.60,327.60,327.60,327.60,327.60,327.60,327.60,327.60,327.60,327.60,327.60,327.60,327.60,327.60,327.60,327.60,327.60,327.60,327.60,322.47,322.47,322.47,322.47,322.47,322.47,322.47,322.47,322.47,322.47,322.47,322.47,322.47,322.47,322.47,322.47,322.47,322.47,322.47,327.60,327.60,327.60,327.60,327.60,327.60,337.40,337.40,327.60,337.40,337.40,337.40,337.40,337.40,337.40,337.40,337.40,337.40,337.40,337.40,337.40,337.40,337.40,337.40,337.40,337.40,337.40,337.40,337.40,337.40,337.40,337.40,337.40,337.40,337.40,337.40,337.40,337.40,337.40,337.40,337.40,337.40,337.40,337.40,337.40,337.40,337.40,337.40,347.20,347.20,347.20,347.20,347.20,347.20,347.20,347.20,347.20,347.20,347.20,347.20,347.20,347.20,347.20,347.20,347.20,347.20,347.20,347.20,347.20,337.40,337.40,337.40,337.40,337.40,337.40,337.40,337.40,337.40,337.40,337.40,337.40,337.40,337.40,337.40,337.40,337.40,337.40,337.40,337.40,337.40,337.40,347.20,347.20,347.20,347.20,347.20,347.20,347.20,347.20,347.20,347.20,347.20,347.20,347.20,346.27,345.80,345.80,345.33,344.87,343.93,343.47,342.53,342.53,342.53,342.53,339.73,330.87,327.13,320.13,310.33,303.33,302.87,302.87,302.87,302.87,302.87,302.40,302.40,302.40,302.40,302.40,302.40,302.40,302.40,302.40,302.40,302.40,302.40,302.40,302.87,302.87,302.87,302.87,302.87,302.87,302.87,302.87,302.87,302.87,302.87,302.87,303.33,303.33,303.33,303.33,303.33,303.33,303.33,303.33,303.33,303.33,303.33,303.33,303.33,303.33,303.80,303.80,303.80,303.80,303.80,303.80,304.27,304.27,304.27,304.27,304.27,304.27,304.73,304.73,304.73,305.20,305.67,305.67,306.13,306.13,306.60,306.60,306.60,307.07,307.07,307.07,307.07,307.07,307.53,307.53,307.53,307.53,307.53,307.53,307.53,308.00,308.00
311.73,311.73,311.73,311.73,311.73,311.73,311.73,311.73,311.73,311.73,311.73,311.73,311.73,311.73,314.53,314.53,314.53,314.53,314.53,314.53,314.53,314.53,314.53,314.53,316.40,316.40,316.40,316.40,316.40,316.40,316.40,316.40,316.40,316.40,316.40,316.40,316.40,316.40,316.40,316.40,316.40,316.40,316.40,316.40,316.40,316.87,316.87,316.87,317.33,317.33,316.40,311.27,307.53,304.27,304.73,304.27,304.27,304.27,304.27,304.27,304.27,304.27,304.27,303.80,303.80,303.80,303.80,303.80,303.80,303.80,303.80,303.80,303.80,303.80,303.80,303.80,303.80,303.80,303.80,303.80,303.80,303.80,303.80,303.80,303.80,303.80,303.80,303.80,303.80,303.80,303.80,303.80,303.80,303.80,303.80,303.80,303.80,303.80,303.80,303.80,303.80,303.80,303.80,303.80,303.80,303.80,303.80,303.80,303.80,303.80,303.80,303.80,303.80,303.80,304.27,304.27,304.73,304.73,305.67,306.13,306.13,306.13,306.60,307.53,307.53,310.80,310.80,313.13,315.47,318.73,318.73,320.60,322.93,322.93,322.93,323.87,330.40,333.67,333.67,343.93,357.00,369.13,369.13,380.80,387.33,393.40,393.40,398.53,373.33,363.53,363.53,347.20,337.40,327.60,327.60,327.60,327.60,322.47,322.47,322.47,322.47,322.47,327.60,327.60,327.60,327.60,327.60,327.60,327.60,327.60,327.60,327.60,327.60,327.60,327.60,327.60,327.60,327.60,327.60,327.60,327.60,327.60,327.60,327.60,327.60,327.60,327.60,327.60,327.60,327.60,327.60,327.60,327.60,327.60,327.60,327.60,327.60,327.60,327.60,327.60,327.60,327.60,327.60,327.60,327.60,322.47,322.47,322.47,322.47,322.47,322.47,322.47,322.47,322.47,322.47,322.47,322.47,322.47,322.47,322.47,322.47,322.47,322.47,327.60,327.60,327.60,327.60,327.60,327.60,327.60,327.60,327.60,327.60,337.40,337.40,337.40,337.40,337.40,337.40,337.40,337.40,337.40,337.40,337.40,337.40,337.40,337.40,337.40,337.40,337.40,337.40,337.40,337.40,337.40,337.40,337.40,337.40,337.40,337.40,337.40,337.40,337.40,337.40,337.40,337.40,337.40,337.40,337.40,337.40,337.40,337.40,337.40,337.40,337.40,337.40,337.40,337.40,347.20,347.20,347.20,347.20,347.20,347.20,347.20,347.20,347.20,347.20,347.20,347.20,347.20,347.20,347.20,347.20,337.40,337.40,337.40,337.40,337.40,337.40,337.40,337.40,337.40,337.40,337.40,327.60,327.60,327.60,327.60,327.60,337.40,337.40,337.40,337.40,337.40,337.40,337.40,347.20,347.20,347.20,347.20,347.20,347.20,347.20,347.20,347.20,347.20,347.20,347.20,344.40,343.93,343.47,342.07,341.13,341.13,340.67,340.67,341.13,341.13,342.53,343.47,342.53,338.80,328.07,320.13,309.87,302.87,302.87,302.87,302.87,302.40,302.40,302.40,302.40,302.40,302.40,302.40,302.40,302.40,302.40,302.40,302.40,302.40,302.40,302.40,302.87,302.87,302.87,302.87,302.87,302.87,302.87,302.87,302.87,302.87,302.87,302.87,303.33,303.33,303.33,303.33,303.33,303.33,303.33,303.33,303.33,303.33,303.33,303.33,303.33,303.80,303.80,303.80,303.80,303.80,303.80,303.80,303.80,303.80,303.80,304.27,304.27,304.27,304.27,304.27,304.73,304.73,304.73,305.20,305.67,305.67,306.60,306.60,307.07,307.07,307.07,307.07,307.07,307.53,307.53,307.53,307.53,307.53,308.00,308.00,308.00,308.47
311.73,311.73,311.73,311.73,311.73,311.73,311.73,311.73,311.73,311.73,311.73,311.73,311.73,311.73,314.53,314.53,314.53,314.53,314.53,314.53,314.53,314.53,314.53,314.53,316.40,316.40,316.40,316.40,316.40,316.40,316.40,316.40,316.40,316.40,316.40,316.40,316.40,316.40,316.40,316.40,316.40,316.40,316.40,316.40,316.40,316.87,316.87,316.87,316.87,317.33,315.93,310.80,307.07,304.27,304.27,304.27,304.27,304.27,304.27,304.27,304.27,304.27,304.27,303.80,303.80,303.80,303.80,303.80,303.80,303.80,303.80,303.80,303.80,303.80,303.80,303.80,303.80,303.80,303.80,303.80,303.80,303.80,303.80,303.80,303.80,303.80,303.80,303.80,303.80,303.80,303.80,303.80,303.80,303.80,303.80,303.80,303.80,303.80,303.80,303.80,303.80,303.80,303.80,303.80,303.80,303.80,303.80,303.80,303.80,303.80,303.80,303.80,303.80,303.80,304.27,304.27,304.73,304.73,305.67,306.13,306.13,306.13,306.60,307.53,307.53,310.80,310.80,313.13,315.47,318.73,318.73,318.73,320.60,322.93,322.93,323.87,327.13,327.13,333.67,343.93,350.47,362.13,362.13,380.80,387.33,393.40,393.40,398.53,373.33,363.53,363.53,347.20,337.40,327.60,327.60,327.60,327.60,322.47,322.47,327.60,327.60,327.60,327.60,327.60,327.60,327.60,327.60,327.60,327.60,327.60,327.60,327.60,327.60,327.60,327.60,327.60,327.60,327.60,327.60,327.60,327.60,327.60,327.60,327.60,327.60,327.60,327.60,327.60,327.60,327.60,327.60,327.60,327.60,327.60,327.60,327.60,327.60,327.60,327.60,327.60,327.60,327.60,327.60,327.60,327.60,322.47,322.47,322.47,322.47,322.47,322.47,322.47,322.47,322.47,322.47,322.47,322.47,322.47,322.47,322.47,322.47,322.47,322.47,327.60,327.60,327.60,327.60,327.60,327.60,327.60,327.60,327.60,327.60,337.40,337.40,327.60,327.60,327.60,337.40,337.40,337.40,337.40,337.40,337.40,337.40,337.40,337.40,337.40,337.40,337.40,337.40,337.40,337.40,337.40,337.40,337.40,337.40,337.40,337.40,337.40,337.40,337.40,337.40,337.40,337.40,337.40,337.40,337.40,337.40,337.40,337.40,337.40,337.40,337.40,337.40,337.40,337.40,337.40,347.20,347.20,347.20,347.20,347.20,347.20,347.20,347.20,347.20,347.20,347.20,347.20,347.20,347.20,337.40,337.40,337.40,337.40,337.40,337.40,337.40,337.40,337.40,337.40,337.40,337.40,327.60,327.60,327.60,327.60,327.60,327.60,337.40,337.40,337.40,337.40,337.40,337.40,337.40,347.20,347.20,347.20,347.20,337.40,347.20,347.20,337.40,337.40,337.40,337.40,340.20,340.67,339.27,339.27,339.73,339.73,339.73,339.73,340.20,340.67,342.07,344.40,346.27,346.73,342.07,329.93,322.00,309.40,302.87,303.33,302.87,302.40,302.40,302.40,302.40,302.40,302.40,302.40,302.40,302.40,302.40,302.40,302.40,302.40,302.40,302.40,302.87,302.87,302.87,302.87,302.87,302.87,302.87,302.87,302.87,302.87,302.87,302.87,303.33,303.33,303.33,303.33,303.33,303.33,303.33,303.33,303.33,303.33,303.33,303.33,303.33,303.80,303.80,303.80,303.80,303.80,303.80,303.80,303.80,303.80,303.80,304.27,304.27,304.27,304.27,304.27,304.73,304.73,304.73,305.20,305.67,305.67,305.67,306.13,306.13,307.07,307.07,307.07,307.07,308.00,308.00,308.00,308.00,308.00,308.00,308.00,308.00,308.47
311.73,311.73,311.73,311.73,311.73,311.73,311.73,311.73,311.73,311.73,311.73,311.73,311.73,311.73,314.53,314.53,314.53,314.53,314.53,314.53,314.53,314.53,314.53,314.53,316.40,316.40,316.40,316.40,316.40,316.40,316.40,316.40,316.40,316.40,316.40,316.40,316.40,316.40,316.40,316.40,316.40,316.40,316.40,316.87,316.40,316.40,316.87,316.87,316.87,316.87,315.93,310.80,307.07,304.27,304.27,304.27,304.27,304.27,304.27,304.27,304.27,304.27,304.27,303.80,303.80,303.80,303.80,303.80,303.80,303.80,303.80,303.80,303.80,303.80,303.80,303.80,303.80,303.80,303.80,303.80,303.80,303.80,303.80,303.80,303.80,303.80,303.80,303.80,303.80,303.80,303.80,303.80,303.80,303.80,303.80,303.80,303.80,303.80,303.80,303.80,303.80,303.80,303.80,303.80,303.80,303.80,303.80,303.80,303.80,303.80,303.80,303.80,303.80,303.80,304.27,304.27,304.73,304.73,305.67,306.13,306.60,306.60,307.07,307.53,309.87,310.80,310.80,313.13,317.33,318.73,318.73,318.73,320.60,322.93,322.93,323.87,327.13,327.13,333.67,336.93,350.47,362.13,362.13,380.80,387.33,393.40,393.40,398.53,373.33,357.00,347.20,347.20,337.40,327.60,327.60,327.60,327.60,322.47,322.47,327.60,327.60,327.60,327.60,327.60,327.60,327.60,327.60,327.60,327.60,327.60,327.60,327.60,327.60,327.60,327.60,327.60,327.60,327.60,327.60,327.60,327.60,327.60,327.60,327.60,327.60,327.60,327.60,327.60,327.60,327.60,327.60,327.60,327.60,327.60,327.60,327.60,327.60,327.60,327.60,327.60,327.60,327.60,327.60,327.60,327.60,322.47,322.47,322.47,322.47,327.60,327.60,327.60,327.60,327.60,327.60,327.60,327.60,327.60,322.47,322.47,322.47,322.47,322.47,327.60,327.60,327.60,327.60,327.60,327.60,327.60,327.60,327.60,327.60,337.40,337.40,327.60,327.60,327.60,337.40,337.40,337.40,337.40,337.40,337.40,337.40,337.40,337.40,337.40,337.40,337.40,337.40,337.40,337.40,337.40,337.40,337.40,337.40,337.40,337.40,337.40,337.40,337.40,337.40,337.40,337.40,337.40,337.40,337.40,337.40,337.40,337.40,337.40,337.40,337.40,337.40,337.40,337.40,337.40,347.20,347.20,347.20,347.20,347.20,347.20,347.20,347.20,347.20,347.20,347.20,347.20,347.20,347.20,337.40,337.40,337.40,337.40,337.40,337.40,337.40,337.40,337.40,337.40,337.40,337.40,327.60,327.60,327.60,327.60,327.60,327.60,337.40,337.40,337.40,337.40,337.40,337.40,337.40,347.20,347.20,347.20,347.20,337.40,347.20,347.20,337.40,337.40,337.40,337.40,338.33,337.87,337.87,338.80,338.80,338.80,338.80,339.27,340.20,341.60,343.00,345.80,346.73,347.20,346.73,341.13,328.53,320.60,308.47,302.40,302.40,302.40,302.40,302.40,302.40,302.40,302.40,302.40,302.40,302.40,302.40,302.40,302.40,302.40,302.40,302.40,302.40,302.40,302.40,302.87,302.87,302.87,302.87,302.87,302.87,302.87,302.87,302.87,302.87,302.87,303.33,303.33,303.33,303.33,303.33,303.33,303.33,303.33,303.33,303.33,303.33,303.33,303.80,303.80,303.80,303.80,303.80,303.80,303.80,303.80,303.80,303.80,304.27,304.27,304.27,304.27,304.27,304.27,304.73,304.73,305.20,305.20,306.13,306.60,306.60,306.60,307.53,307.07,307.07,307.53,307.53,308.00,308.00,308.00,308.00,308.00,308.00,308.00
311.73,311.73,311.73,311.73,311.73,311.73,311.73,311.73,311.73,311.73,311.73,311.73,311.73,311.73,311.73,311.73,311.73,311.73,311.73,311.73,311.73,314.53,314.53,314.53,316.40,316.40,316.40,316.40,316.40,316.40,316.40,316.40,316.40,316.40,316.40,316.40,316.40,316.40,316.40,316.40,316.40,316.40,316.40,316.40,316.40,316.87,316.87,316.87,316.87,316.87,315.47,309.87,307.07,304.27,304.27,304.27,304.27,304.27,304.27,304.27,304.27,304.27,303.80,303.80,303.80,303.80,303.80,303.80,303.80,303.80,303.80,303.80,303.80,303.80,303.80,303.80,303.80,303.80,303.80,303.80,303.80,303.80,303.80,303.80,303.80,303.80,303.80,303.80,303.80,303.80,303.80,303.80,303.80,303.80,303.80,303.80,303.80,303.80,303.80,303.80,303.80,303.80,303.80,303.80,303.80,303.80,303.80,303.80,303.80,303.80,303.80,303.80,303.80,303.80,304.27,304.27,304.73,305.20,305.67,306.13,307.07,307.07,307.07,307.53,309.87,313.13,313.13,313.13,315.47,317.33,317.33,318.73,320.60,322.93,322.93,322.93,327.13,327.13,333.67,336.93,350.47,362.13,362.13,380.80,387.33,393.40,393.40,398.53,373.33,357.00,347.20,347.20,337.40,327.60,327.60,327.60,322.47,322.47,322.47,322.47,322.47,322.47,327.60,327.60,327.60,327.60,327.60,327.60,327.60,327.60,327.60,327.60,327.60,327.60,327.60,327.60,327.60,327.60,327.60,327.60,327.60,327.60,327.60,327.60,327.60,327.60,327.60,322.47,322.47,322.47,327.60,327.60,327.60,327.60,327.60,327.60,327.60,327.60,327.60,327.60,327.60,327.60,327.60,327.60,327.60,327.60,327.60,327.60,327.60,327.60,327.60,327.60,327.60,327.60,327.60,327.60,327.60,327.60,327.60,327.60,327.60,322.47,322.47,327.60,327.60,327.60,327.60,327.60,327.60,327.60,327.60,327.60,327.60,327.60,327.60,327.60,327.60,327.60,327.60,327.60,327.60,337.40,337.40,337.40,337.40,337.40,337.40,337.40,337.40,337.40,337.40,337.40,337.40,337.40,337.40,337.40,337.40,337.40,337.40,337.40,337.40,337.40,327.60,327.60,327.60,327.60,327.60,337.40,337.40,327.60,327.60,337.40,337.40,337.40,337.40,337.40,337.40,337.40,337.40,337.40,337.40,347.20,347.20,347.20,347.20,337.40,337.40,337.40,337.40,337.40,337.40,337.40,337.40,337.40,337.40,337.40,337.40,337.40,337.40,337.40,337.40,337.40,337.40,337.40,327.60,327.60,327.60,327.60,327.60,327.60,337.40,337.40,337.40,337.40,337.40,337.40,337.40,337.40,337.40,337.40,337.40,337.40,337.40,337.40,337.40,337.40,337.40,337.40,337.87,337.87,337.40,337.87,337.87,337.87,338.33,338.80,340.67,342.07,344.87,346.73,347.20,347.20,346.73,346.73,340.67,327.13,319.67,305.67,302.40,302.40,302.40,302.40,302.40,302.40,302.40,302.40,302.40,302.40,302.40,302.40,302.40,302.40,302.40,302.40,302.40,302.40,302.40,302.40,302.87,302.87,302.87,302.87,302.87,302.87,302.87,302.87,302.87,302.87,302.87,303.33,303.33,303.33,303.33,303.33,303.33,303.33,303.33,303.33,303.33,303.33,303.33,303.80,303.80,303.80,303.80,303.80,303.80,303.80,303.80,303.80,303.80,303.80,304.27,304.27,304.27,304.27,304.27,304.27,305.20,304.73,304.73,306.13,306.13,306.13,306.60,306.60,307.53,307.53,307.53,308.00,308.00,308.47,308.00,308.00,308.47,308.00
311.73,311.73,311.73,311.73,311.73,311.73,311.73,311.73,311.73,311.73,311.73,311.73,311.73,311.73,311.73,311.73,311.73,311.73,311.73,311.73,311.73,314.53,314.53,314.53,316.40,316.40,316.40,316.40,316.40,316.40,316.40,316.40,316.40,316.40,316.40,316.40,316.40,316.40,316.40,316.40,316.40,316.40,316.40,316.40,316.40,316.87,316.87,316.87,316.40,315.00,312.20,307.53,305.67,304.27,304.27,304.27,304.27,304.27,304.27,304.27,304.27,304.27,304.27,303.80,303.80,303.80,303.80,303.80,303.80,303.80,303.80,303.80,303.80,303.80,303.80,303.80,303.80,303.80,303.80,303.80,303.80,303.80,303.80,303.80,303.80,303.80,303.80,303.80,303.80,303.80,303.80,303.80,303.80,303.80,303.80,303.80,303.80,303.80,303.80,303.80,303.80,303.80,303.80,303.80,303.80,303.80,303.80,303.80,303.80,303.80,303.80,303.80,303.80,303.80,304.27,304.27,304.73,306.13,305.67,306.60,307.07,307.53,307.53,307.53,310.80,313.13,313.13,313.13,315.47,317.33,317.33,318.73,320.60,322.93,322.93,322.93,327.13,327.13,333.67,336.93,350.47,369.13,369.13,380.80,389.20,393.40,393.40,384.53,373.33,357.00,347.20,347.20,337.40,327.60,327.60,327.60,322.47,322.47,322.47,322.47,322.47,322.47,327.60,327.60,327.60,327.60,327.60,327.60,327.60,327.60,327.60,327.60,327.60,327.60,327.60,327.60,327.60,327.60,327.60,327.60,327.60,327.60,327.60,327.60,322.47,322.47,322.47,322.47,322.47,322.47,322.47,322.47,327.60,327.60,327.60,327.60,327.60,327.60,327.60,327.60,327.60,327.60,327.60,327.60,327.60,327.60,327.60,327.60,327.60,327.60,327.60,327.60,327.60,327.60,327.60,327.60,327.60,327.60,327.60,327.60,327.60,322.47,322.47,327.60,327.60,327.60,327.60,327.60,327.60,327.60,327.60,327.60,327.60,327.60,327.60,327.60,327.60,327.60,327.60,327.60,327.60,327.60,327.60,327.60,337.40,337.40,337.40,337.40,337.40,337.40,337.40,337.40,337.40,337.40,337.40,337.40,337.40,337.40,337.40,337.40,337.40,327.60,327.60,327.60,327.60,327.60,327.60,327.60,327.60,327.60,327.60,327.60,337.40,337.40,337.40,337.40,337.40,337.40,337.40,337.40,337.40,337.40,337.40,337.40,337.40,337.40,337.40,337.40,337.40,337.40,337.40,337.40,337.40,337.40,337.40,337.40,337.40,337.40,337.40,337.40,337.40,337.40,337.40,337.40,327.60,327.60,327.60,327.60,327.60,327.60,337.40,337.40,337.40,337.40,337.40,337.40,337.40,337.40,337.40,337.40,337.40,337.40,337.40,337.40,337.40,337.40,337.40,337.40,337.40,337.40,337.87,337.40,337.40,337.87,338.33,339.27,341.13,343.93,346.27,347.20,347.20,346.73,346.73,347.20,346.73,338.33,323.87,312.20,303.33,302.40,302.40,302.40,302.40,302.40,302.40,302.40,302.40,302.40,302.40,302.40,302.40,302.40,302.40,302.40,302.40,302.40,302.40,302.40,302.40,302.40,302.87,302.87,302.87,302.87,302.87,302.87,302.87,302.87,302.87,302.87,302.87,302.87,303.33,303.33,303.33,303.33,303.33,303.33,303.33,303.33,303.33,303.33,303.33,303.80,303.80,303.80,303.80,303.80,303.80,303.80,303.80,303.80,303.80,303.80,303.80,303.80,303.80,303.80,303.80,304.73,304.73,306.13,306.13,306.13,306.13,306.60,306.60,307.07,308.00,308.47,307.53,308.00,308.47,308.00,308.00,308.47
311.73,311.73,311.73,311.73,311.73,311.73,311.73,311.73,311.73,311.73,311.73,311.73,311.73,311.73,311.73,311.73,311.73,311.73,311.73,311.73,311.73,311.73,311.73,311.73,314.53,315.93,316.40,316.40,316.40,316.40,316.40,316.40,316.40,316.40,316.40,316.40,316.40,316.40,316.40,316.40,316.40,316.40,316.40,316.40,316.40,315.93,312.67,312.67,310.33,308.93,307.53,305.67,305.20,303.33,303.80,304.27,304.27,304.27,304.27,304.27,304.27,304.27,303.80,303.80,303.80,303.80,303.80,303.80,303.80,303.80,303.80,303.80,303.80,303.80,303.80,303.80,303.80,303.80,303.80,303.80,303.80,303.80,303.80,303.80,303.80,303.80,303.80,303.80,303.80,303.80,303.80,303.80,303.80,303.80,303.80,303.80,303.80,303.80,303.80,303.80,303.80,303.80,303.80,303.80,303.80,303.80,303.80,303.80,303.80,303.80,303.80,303.80,303.80,303.80,304.27,304.27,305.20,305.67,306.13,307.07,307.07,308.00,307.07,307.53,310.80,313.13,313.13,313.13,315.47,317.33,317.33,318.73,320.60,320.60,320.60,322.93,327.13,327.13,330.40,336.93,350.47,369.13,369.13,380.80,389.20,393.40,393.40,384.53,373.33,357.00,347.20,347.20,337.40,327.60,327.60,327.60,327.60,327.60,327.60,327.60,327.60,327.60,327.60,327.60,327.60,327.60,327.60,327.60,327.60,327.60,327.60,327.60,327.60,327.60,327.60,327.60,327.60,327.60,327.60,327.60,327.60,327.60,327.60,327.60,322.47,322.47,322.47,322.47,322.47,322.47,322.47,322.47,327.60,327.60,327.60,327.60,327.60,327.60,327.60,327.60,327.60,327.60,327.60,327.60,327.60,327.60,327.60,327.60,327.60,327.60,327.60,327.60,327.60,327.60,327.60,327.60,327.60,327.60,327.60,327.60,327.60,322.47,322.47,327.60,327.60,327.60,327.60,327.60,327.60,327.60,327.60,327.60,327.60,327.60,327.60,327.60,327.60,327.60,327.60,327.60,327.60,327.60,327.60,327.60,337.40,337.40,337.40,337.40,337.40,337.40,337.40,337.40,337.40,337.40,337.40,337.40,337.40,337.40,337.40,337.40,337.40,327.60,327.60,327.60,327.60,327.60,327.60,327.60,327.60,327.60,327.60,327.60,337.40,337.40,337.40,337.40,337.40,337.40,337.40,337.40,337.40,337.40,337.40,337.40,337.40,337.40,337.40,337.40,337.40,337.40,337.40,337.40,337.40,337.40,337.40,337.40,337.40,337.40,337.40,337.40,337.40,337.40,337.40,337.40,337.40,337.40,327.60,327.60,327.60,327.60,337.40,337.40,337.40,337.40,337.40,337.40,337.40,337.40,337.40,337.40,337.40,337.40,337.40,337.40,337.40,337.40,337.40,337.40,337.40,337.40,337.87,337.40,337.87,337.87,338.33,340.20,343.47,345.80,346.73,347.20,347.20,347.20,347.20,346.73,347.20,346.73,330.87,323.40,312.67,302.40,302.40,302.40,302.40,302.40,302.40,302.40,302.40,302.40,302.40,302.40,302.40,302.40,302.40,302.40,302.40,302.40,302.40,302.40,302.40,302.40,302.87,302.87,302.87,302.87,302.87,302.87,302.87,302.87,302.87,302.87,302.87,302.87,303.33,303.33,303.33,303.33,303.33,303.33,303.33,303.33,303.33,303.33,303.33,303.80,303.80,303.80,303.80,303.80,303.80,303.80,303.80,303.80,303.80,303.80,303.80,303.80,303.80,303.80,303.80,304.27,305.20,305.67,306.13,306.13,306.60,306.13,307.07,307.07,307.07,307.53,308.47,308.00,308.00,308.47,308.47,308.00
311.73,311.73,311.73,311.73,311.73,311.73,311.73,311.73,311.73,311.73,311.73,311.73,311.73,311.73,311.73,311.73,311.73,311.73,311.73,311.73,311.73,311.73,312.67,313.13,314.07,315.00,315.93,316.40,316.40,316.40,316.40,316.40,316.40,316.40,316.40,316.40,316.40,316.40,316.40,316.40,316.40,316.40,316.40,316.40,314.07,310.33,309.87,308.93,306.13,304.27,304.27,302.40,302.40,302.40,302.87,302.87,303.33,303.80,304.27,304.27,304.27,303.80,303.80,303.80,303.80,303.80,303.80,303.80,303.80,303.80,303.80,303.80,303.80,303.80,303.80,303.80,303.80,303.80,303.80,303.80,303.80,303.80,303.80,303.80,303.80,303.80,303.80,303.80,303.80,303.80,303.80,303.80,303.80,303.80,303.80,303.80,303.80,303.80,303.80,303.80,303.80,303.80,303.80,303.80,303.80,303.80,303.80,303.80,303.80,303.80,304.27,304.27,304.27,304.27,304.73,305.20,306.60,306.60,306.60,306.60,307.53,308.47,307.07,307.53,310.80,313.13,313.13,315.47,315.47,317.33,317.33,318.73,320.60,320.60,320.60,322.93,327.13,327.13,330.40,336.93,350.47,369.13,369.13,380.80,389.20,393.40,393.40,384.53,373.33,363.53,363.53,347.20,337.40,337.40,337.40,327.60,327.60,327.60,327.60,327.60,327.60,327.60,327.60,327.60,327.60,327.60,327.60,327.60,327.60,327.60,327.60,327.60,327.60,327.60,327.60,327.60,327.60,327.60,327.60,327.60,327.60,322.47,322.47,322.47,322.47,322.47,322.47,322.47,322.47,322.47,322.47,322.47,322.47,327.60,327.60,327.60,327.60,327.60,327.60,327.60,327.60,327.60,327.60,327.60,327.60,327.60,327.60,327.60,327.60,327.60,327.60,327.60,327.60,327.60,327.60,327.60,327.60,327.60,327.60,327.60,327.60,322.47,322.47,322.47,322.47,322.47,322.47,322.47,327.60,327.60,327.60,327.60,327.60,327.60,327.60,327.60,327.60,327.60,327.60,327.60,327.60,327.60,327.60,327.60,337.40,337.40,337.40,337.40,337.40,337.40,337.40,337.40,337.40,337.40,337.40,337.40,337.40,337.40,337.40,337.40,337.40,337.40,327.60,327.60,327.60,327.60,327.60,327.60,327.60,327.60,327.60,327.60,337.40,337.40,337.40,337.40,337.40,337.40,337.40,337.40,337.40,337.40,337.40,337.40,337.40,337.40,337.40,337.40,337.40,337.40,337.40,337.40,337.40,337.40,337.40,337.40,337.40,337.40,337.40,337.40,337.40,337.40,337.40,337.40,337.40,337.40,337.40,337.40,337.40,337.40,337.40,337.40,337.40,337.40,337.40,337.40,337.40,337.40,337.40,337.40,337.40,337.40,337.40,337.40,337.40,337.40,337.40,337.40,337.40,337.40,337.40,337.40,337.40,337.87,338.80,341.13,343.93,346.73,346.73,347.20,347.20,347.20,346.73,346.73,346.73,346.73,341.60,327.13,318.27,304.73,302.40,302.40,302.40,302.40,302.40,302.40,302.40,302.40,302.40,302.40,302.40,302.40,302.40,302.40,302.40,302.40,302.40,302.40,302.40,302.40,302.40,302.87,302.87,302.87,302.87,302.87,302.87,302.87,302.87,302.87,302.87,302.87,303.33,303.33,303.33,303.33,303.33,303.33,303.33,303.33,303.33,303.33,303.33,303.80,303.80,303.80,303.80,303.80,303.80,303.80,303.80,303.80,303.80,303.80,303.80,303.80,303.80,303.80,303.80,304.27,304.73,305.20,305.67,305.67,306.13,306.13,306.13,306.60,307.53,307.07,307.53,307.53,307.07,307.07,307.07,306.60
311.73,311.73,311.73,311.73,311.73,311.73,311.73,311.73,311.73,311.73,311.73,311.73,311.73,311.73,311.73,311.73,311.73,311.73,311.73,312.20,312.20,312.20,312.67,313.13,313.60,314.53,315.47,316.40,316.40,316.40,316.40,316.40,316.40,316.40,316.40,316.40,316.40,316.40,316.40,316.40,316.40,316.40,316.40,312.67,309.40,307.07,304.27,302.87,301.00,301.47,301.47,301.00,301.00,301.47,301.93,302.40,302.40,302.87,303.33,303.33,304.27,303.80,303.80,303.80,303.80,303.80,303.80,303.80,303.80,303.80,303.80,303.80,303.80,303.80,303.80,303.80,303.80,303.80,303.80,303.80,303.80,303.80,303.80,303.80,303.80,303.80,303.80,303.80,303.80,303.80,303.80,303.80,303.80,303.80,303.80,303.80,303.80,303.80,303.80,303.80,303.80,303.80,303.80,303.80,303.80,303.80,303.80,303.80,303.80,303.80,304.27,304.27,304.27,305.67,305.20,305.67,306.60,306.60,306.60,307.07,308.00,309.40,309.87,309.87,313.13,313.13,313.13,315.47,315.47,317.33,317.33,318.73,320.60,320.60,320.60,322.93,327.13,327.13,330.40,336.93,350.47,369.13,369.13,380.80,389.20,396.20,384.53,384.53,373.33,363.53,363.53,347.20,337.40,337.40,337.40,327.60,327.60,327.60,327.60,327.60,327.60,327.60,322.47,322.47,322.47,322.47,322.47,322.47,322.47,322.47,322.47,327.60,327.60,327.60,327.60,327.60,327.60,327.60,327.60,327.60,322.47,322.47,322.47,322.47,322.47,322.47,322.47,322.47,322.47,322.47,322.47,322.47,322.47,327.60,327.60,327.60,327.60,327.60,327.60,327.60,327.60,327.60,327.60,327.60,327.60,327.60,327.60,327.60,327.60,327.60,327.60,327.60,327.60,327.60,327.60,327.60,327.60,327.60,327.60,327.60,327.60,327.60,322.47,322.47,322.47,322.47,322.47,322.47,327.60,327.60,327.60,327.60,327.60,327.60,327.60,327.60,327.60,327.60,327.60,327.60,327.60,327.60,327.60,327.60,337.40,337.40,337.40,337.40,337.40,337.40,337.40,337.40,337.40,337.40,337.40,337.40,337.40,337.40,337.40,337.40,337.40,337.40,327.60,327.60,327.60,327.60,327.60,327.60,327.60,327.60,327.60,327.60,327.60,327.60,337.40,337.40,337.40,337.40,337.40,337.40,337.40,337.40,337.40,327.60,327.60,327.60,327.60,327.60,327.60,327.60,327.60,327.60,327.60,327.60,327.60,337.40,337.40,337.40,337.40,337.40,337.40,337.40,337.40,337.40,337.40,337.40,337.40,337.40,337.40,337.40,337.40,337.40,337.40,337.40,337.40,337.40,337.40,337.40,337.40,337.40,337.40,337.40,337.40,337.40,337.40,337.40,337.40,337.40,337.40,337.40,337.40,337.40,337.40,338.80,340.67,343.47,345.33,346.73,347.20,347.20,347.20,347.20,347.20,346.73,346.73,346.73,346.27,338.80,324.80,318.27,305.20,302.40,302.40,302.40,302.40,302.40,302.40,302.40,302.40,302.40,302.40,302.40,302.40,302.40,302.40,302.40,302.40,302.40,302.40,302.40,302.40,302.40,302.87,302.87,302.87,302.87,302.87,302.87,302.87,302.87,302.87,302.87,302.87,303.33,303.33,303.33,303.33,303.33,303.33,303.33,303.33,303.33,303.33,303.33,303.33,303.80,303.80,303.80,303.80,303.80,303.80,303.80,303.80,303.80,303.80,303.80,303.80,303.80,303.80,304.27,304.73,305.20,304.73,305.20,305.20,306.13,305.20,305.67,305.67,306.13,306.13,306.13,306.13,306.13,305.67,305.20
311.73,311.73,311.73,311.73,311.73,311.73,311.73,311.73,311.73,311.73,311.73,311.73,311.73,311.73,311.73,311.73,311.73,311.73,311.73,312.20,312.20,312.20,312.20,312.67,313.60,314.53,315.47,315.93,316.40,316.40,316.40,316.40,316.40,316.40,316.40,316.40,316.40,316.40,316.40,316.40,316.40,315.47,312.67,308.47,306.60,302.40,301.47,301.00,301.00,301.00,301.00,301.00,301.00,301.00,301.47,301.00,301.47,302.40,302.40,302.87,303.33,303.80,303.80,303.80,303.80,303.80,303.80,303.80,303.80,303.80,303.80,303.80,303.80,303.80,303.80,303.80,303.80,303.80,303.80,303.80,303.80,303.80,303.80,303.80,303.80,303.80,303.80,303.80,303.80,303.80,303.80,303.80,303.80,303.80,303.80,303.33,303.80,303.80,303.80,303.80,303.80,303.80,303.80,303.80,303.80,303.80,303.80,303.80,303.80,303.80,304.27,305.20,304.73,305.67,306.13,306.13,306.13,306.60,306.60,307.53,308.93,310.80,309.87,309.87,313.13,313.13,313.13,315.47,315.47,317.33,317.33,318.73,320.60,320.60,320.60,322.93,327.13,327.13,330.40,336.93,350.47,369.13,369.13,380.80,389.20,396.20,384.53,384.53,373.33,363.53,363.53,347.20,347.20,337.40,337.40,327.60,327.60,327.60,327.60,327.60,327.60,327.60,322.47,322.47,322.47,322.47,322.47,322.47,322.47,322.47,322.47,327.60,327.60,327.60,327.60,327.60,327.60,327.60,327.60,327.60,322.47,322.47,322.47,322.47,322.47,322.47,322.47,322.47,322.47,322.47,322.47,322.47,322.47,327.60,327.60,327.60,327.60,327.60,327.60,327.60,327.60,327.60,327.60,327.60,327.60,327.60,327.60,327.60,327.60,327.60,327.60,327.60,327.60,327.60,327.60,327.60,327.60,327.60,327.60,327.60,327.60,327.60,322.47,322.47,322.47,322.47,322.47,322.47,322.47,322.47,327.60,327.60,327.60,327.60,327.60,327.60,327.60,327.60,327.60,327.60,327.60,327.60,327.60,327.60,327.60,337.40,337.40,337.40,337.40,337.40,337.40,337.40,337.40,337.40,337.40,337.40,337.40,337.40,337.40,337.40,337.40,337.40,327.60,327.60,327.60,327.60,327.60,327.60,327.60,327.60,327.60,327.60,327.60,327.60,327.60,327.60,327.60,327.60,327.60,327.60,327.60,327.60,327.60,327.60,327.60,327.60,327.60,327.60,327.60,327.60,327.60,327.60,327.60,327.60,327.60,327.60,337.40,337.40,337.40,337.40,337.40,337.40,337.40,337.40,337.40,337.40,337.40,337.40,337.40,337.40,337.40,337.40,337.40,337.40,337.40,337.40,337.40,337.40,337.40,337.40,337.40,337.40,337.40,337.40,337.40,337.40,337.40,337.40,337.40,337.40,337.40,337.40,338.33,339.73,342.07,345.33,346.73,346.73,347.20,346.73,347.20,346.73,346.73,346.73,346.73,346.27,345.80,345.33,336.93,323.87,314.07,302.40,302.40,302.40,302.40,302.40,302.40,302.40,302.40,302.40,302.40,302.40,302.40,302.40,302.40,302.40,302.40,302.40,302.40,302.40,302.40,302.40,302.87,302.87,302.87,302.87,302.87,302.87,302.87,302.87,302.87,302.87,302.87,303.33,303.33,303.33,303.33,303.33,303.33,303.33,303.33,303.33,303.33,303.33,303.33,303.80,303.33,303.33,303.80,303.80,303.80,303.80,303.80,303.80,303.80,303.80,303.80,303.80,303.80,303.80,303.80,304.27,304.27,304.27,305.20,304.27,305.20,304.73,304.73,305.20,305.20,305.20,304.27,303.80,304.27,304.73
311.73,311.73,311.73,311.73,311.73,311.73,311.73,311.73,311.73,311.73,311.73,311.73,311.73,311.73,311.73,311.73,311.73,311.73,311.73,311.73,312.20,312.20,312.20,313.13,313.60,314.07,315.00,315.93,316.40,316.40,316.40,316.40,316.40,316.40,316.40,316.40,316.40,316.40,316.40,316.40,315.00,310.80,308.47,306.13,301.93,301.00,301.00,301.00,301.00,301.00,301.00,301.00,301.00,301.00,301.00,301.00,301.00,301.00,301.47,301.93,302.87,303.33,303.80,303.80,303.80,303.80,303.80,303.80,303.80,303.80,303.80,303.80,303.80,303.80,303.80,303.80,303.80,303.80,303.80,303.80,303.80,303.80,303.80,303.80,303.80,303.80,303.80,303.80,303.80,303.80,303.80,303.80,303.80,303.33,303.33,303.33,303.80,303.33,303.80,303.80,303.80,303.80,303.80,303.80,303.80,303.80,303.80,303.80,304.27,303.80,304.27,304.73,305.20,306.13,306.13,306.13,306.13,306.60,306.60,307.07,307.53,310.80,310.80,310.80,313.13,315.47,315.47,315.47,315.47,317.33,317.33,318.73,318.73,318.73,320.60,322.93,327.13,327.13,330.40,336.93,357.00,369.13,369.13,384.07,389.20,396.20,384.53,384.53,373.33,363.53,363.53,357.00,347.20,337.40,337.40,327.60,327.60,327.60,327.60,327.60,327.60,327.60,322.47,322.47,322.47,322.47,322.47,322.47,322.47,322.47,322.47,322.47,322.47,322.47,322.47,322.47,322.47,322.47,322.47,322.47,322.47,322.47,322.47,322.47,322.47,322.47,322.47,322.47,322.47,322.47,322.47,322.47,322.47,327.60,327.60,327.60,327.60,327.60,327.60,327.60,327.60,327.60,327.60,327.60,327.60,327.60,327.60,327.60,327.60,327.60,327.60,327.60,327.60,327.60,327.60,327.60,327.60,327.60,327.60,327.60,327.60,327.60,322.47,322.47,322.47,322.47,322.47,322.47,322.47,322.47,327.60,327.60,327.60,327.60,327.60,327.60,327.60,327.60,327.60,327.60,327.60,327.60,327.60,327.60,327.60,337.40,337.40,337.40,337.40,337.40,337.40,337.40,337.40,337.40,337.40,337.40,337.40,337.40,337.40,337.40,337.40,337.40,327.60,327.60,327.60,327.60,327.60,327.60,327.60,327.60,327.60,327.60,327.60,327.60,327.60,327.60,327.60,327.60,327.60,327.60,327.60,327.60,327.60,327.60,327.60,327.60,327.60,327.60,327.60,327.60,327.60,327.60,327.60,327.60,327.60,327.60,337.40,337.40,337.40,337.40,337.40,337.40,337.40,337.40,337.40,337.40,337.40,337.40,337.40,337.40,337.40,337.40,337.40,337.40,337.40,337.40,337.40,337.40,337.40,337.40,337.40,337.40,337.40,337.40,337.40,337.40,337.40,337.40,337.40,337.40,337.40,337.87,338.80,340.67,343.93,346.27,346.73,346.73,347.20,347.20,346.73,347.67,346.73,346.73,346.27,345.80,345.33,344.87,344.87,329.47,322.93,312.20,302.40,302.40,302.40,302.40,302.40,302.40,302.40,302.40,302.40,302.40,302.40,302.40,302.40,302.40,302.40,302.40,302.40,302.40,302.40,302.40,302.40,302.40,302.87,302.87,302.87,302.87,302.87,302.87,302.87,302.87,302.87,302.87,302.87,302.87,303.33,303.33,303.33,303.33,303.33,303.33,303.33,303.33,303.33,303.33,303.33,303.33,303.33,303.33,303.80,303.80,303.80,303.80,303.80,303.80,303.80,303.80,303.80,303.80,303.80,303.80,303.80,303.80,303.80,303.80,303.80,304.27,303.33,303.33,303.33,303.80,303.33,303.33,303.33,303.33
311.73,311.73,311.73,311.73,311.73,311.73,311.73,311.73,311.73,311.73,311.73,311.73,311.73,311.73,311.73,311.73,311.73,311.73,311.73,311.73,312.20,312.20,312.20,312.67,313.13,313.60,314.53,315.47,315.93,316.40,316.40,316.40,316.40,316.40,316.40,316.40,316.40,316.40,314.53,312.20,309.87,308.00,304.27,301.00,301.00,301.00,301.00,301.00,301.00,301.00,301.00,301.00,301.00,301.00,301.00,301.00,301.00,301.00,301.00,301.47,302.40,302.87,303.33,303.80,303.80,303.80,303.80,303.80,303.80,303.80,303.80,303.80,303.80,303.80,303.80,303.80,303.80,303.80,303.80,303.80,303.80,303.80,303.80,303.80,303.80,303.80,303.80,303.80,303.80,303.80,303.80,303.80,303.80,303.33,303.33,303.33,303.33,303.33,303.33,303.33,303.33,303.33,303.80,303.80,303.80,303.80,304.27,303.80,303.80,303.80,304.27,304.73,305.20,306.60,306.13,306.13,306.60,307.07,308.00,307.53,307.53,310.80,313.13,313.13,315.47,315.47,315.47,315.47,315.47,317.33,317.33,318.73,318.73,318.73,320.60,322.93,327.13,327.13,330.40,336.93,357.00,366.80,384.07,384.07,389.20,396.20,396.20,398.53,373.33,363.53,363.53,357.00,347.20,337.40,337.40,337.40,327.60,327.60,327.60,327.60,327.60,327.60,322.47,322.47,322.47,322.47,322.47,322.47,322.47,322.47,322.47,322.47,322.47,322.47,322.47,322.47,322.47,322.47,322.47,322.47,322.47,322.47,322.47,322.47,322.47,322.47,322.47,322.47,322.47,322.47,322.47,322.47,322.47,322.47,322.47,327.60,327.60,327.60,327.60,327.60,327.60,327.60,327.60,327.60,327.60,327.60,327.60,327.60,327.60,327.60,327.60,327.60,327.60,327.60,327.60,327.60,327.60,327.60,327.60,327.60,327.60,327.60,322.47,322.47,322.47,322.47,322.47,322.47,327.60,327.60,327.60,327.60,327.60,327.60,327.60,322.47,322.47,327.60,327.60,327.60,327.60,327.60,327.60,327.60,327.60,337.40,337.40,337.40,337.40,337.40,337.40,337.40,337.40,337.40,337.40,337.40,337.40,337.40,337.40,337.40,337.40,337.40,327.60,327.60,327.60,327.60,327.60,327.60,327.60,327.60,327.60,327.60,327.60,327.60,327.60,327.60,327.60,327.60,327.60,327.60,327.60,327.60,327.60,327.60,327.60,327.60,327.60,327.60,327.60,327.60,327.60,327.60,327.60,327.60,327.60,327.60,327.60,327.60,337.40,337.40,337.40,337.40,337.40,337.40,337.40,337.40,337.40,337.40,337.40,337.40,337.40,337.40,337.40,337.40,337.40,337.40,337.40,337.40,337.40,337.40,337.40,337.40,337.40,337.40,337.40,337.40,337.40,337.40,337.40,337.40,337.40,337.40,338.33,342.07,345.80,346.73,347.20,347.20,347.20,347.20,347.20,347.20,346.73,346.73,345.80,345.33,344.87,344.40,344.40,342.07,328.53,322.93,312.20,302.40,302.40,302.40,302.40,302.40,302.40,302.40,302.40,302.40,302.40,302.40,302.40,302.40,302.40,302.40,302.40,302.40,302.40,302.40,302.40,302.40,302.40,302.40,302.40,302.87,302.87,302.87,302.87,302.87,302.87,302.87,302.87,302.87,302.87,302.87,302.87,303.33,303.33,303.33,303.33,303.33,303.33,303.33,303.33,303.33,303.33,303.33,303.33,303.33,303.33,303.33,303.80,303.80,303.80,303.80,303.80,303.80,303.80,303.33,303.33,303.33,303.33,304.27,303.80,303.33,303.33,303.80,303.80,303.33,303.33,303.80,303.33,303.80
311.73,311.73,311.73,311.73,311.73,311.73,311.73,311.73,311.73,311.73,311.73,311.73,311.73,311.73,311.73,311.73,311.73,311.73,311.73,312.20,311.73,312.20,312.20,312.20,312.67,313.60,314.07,315.00,315.93,316.40,316.40,316.40,316.40,316.40,316.40,315.00,314.07,312.67,309.87,308.47,306.13,303.80,301.00,301.00,301.00,301.00,301.00,301.00,301.00,301.00,301.00,301.00,301.00,301.00,301.00,301.00,301.00,301.00,301.00,301.00,301.93,302.40,302.87,303.80,303.80,303.80,303.80,303.80,303.80,303.80,303.80,303.80,303.80,303.80,303.80,303.80,303.80,303.80,303.80,303.80,303.80,303.80,303.80,303.80,303.80,303.80,303.80,303.80,303.80,303.80,303.33,303.33,303.80,303.33,303.33,303.33,303.33,303.33,303.33,303.33,303.33,303.33,303.33,303.33,303.80,303.33,303.80,303.80,303.80,303.80,304.73,304.73,305.67,305.67,306.13,307.07,307.07,307.53,308.47,309.87,309.87,310.80,313.13,313.13,315.47,315.47,315.47,315.47,317.33,317.33,317.33,318.73,318.73,318.73,320.60,322.93,327.13,327.13,330.40,336.93,353.27,364.00,384.07,384.07,389.20,396.20,396.20,398.53,373.33,363.53,363.53,357.00,347.20,337.40,337.40,337.40,327.60,327.60,327.60,327.60,322.47,322.47,322.47,322.47,322.47,322.47,322.47,322.47,322.47,322.47,322.47,322.47,322.47,322.47,322.47,322.47,322.47,322.47,322.47,322.47,322.47,318.73,318.73,318.73,318.73,318.73,318.73,318.73,318.73,322.47,322.47,322.47,322.47,322.47,322.47,327.60,327.60,327.60,327.60,327.60,327.60,327.60,327.60,327.60,327.60,327.60,327.60,327.60,327.60,327.60,327.60,327.60,327.60,327.60,327.60,327.60,327.60,327.60,327.60,327.60,327.60,327.60,322.47,322.47,322.47,322.47,322.47,322.47,327.60,327.60,327.60,327.60,327.60,327.60,322.47,322.47,322.47,322.47,327.60,327.60,327.60,327.60,327.60,327.60,327.60,337.40,337.40,337.40,337.40,337.40,337.40,337.40,337.40,337.40,337.40,337.40,337.40,337.40,337.40,337.40,337.40,337.40,327.60,327.60,327.60,327.60,327.60,327.60,327.60,327.60,327.60,327.60,327.60,327.60,327.60,327.60,327.60,327.60,327.60,327.60,327.60,327.60,327.60,327.60,327.60,327.60,327.60,327.60,327.60,327.60,327.60,327.60,327.60,327.60,327.60,327.60,327.60,327.60,337.40,337.40,337.40,337.40,337.40,337.40,337.40,337.40,337.40,337.40,337.40,337.40,337.40,337.40,337.40,337.40,337.40,337.40,337.40,337.40,337.40,337.40,337.40,337.40,337.40,337.40,337.40,337.40,337.40,337.40,337.40,337.40,337.40,337.40,341.13,344.40,346.27,346.73,347.20,347.20,347.20,347.20,347.20,347.20,347.20,346.27,344.87,343.93,343.93,343.93,343.93,344.40,342.07,329.00,323.40,312.67,302.40,302.40,302.40,302.40,302.40,302.40,302.40,302.40,302.40,302.40,302.40,302.40,302.40,302.40,302.40,302.40,302.40,302.40,302.40,302.40,302.40,302.40,302.40,302.40,302.87,302.87,302.87,302.87,302.87,302.87,302.87,302.87,302.87,302.87,302.87,302.87,302.87,302.87,302.87,303.33,303.33,303.33,303.33,303.33,303.33,303.33,303.33,303.33,303.33,303.33,303.33,303.33,303.33,303.33,303.33,303.33,303.33,303.33,303.33,303.33,303.33,303.33,303.33,303.80,303.33,303.33,303.33,303.33,303.33,303.33,303.33,303.33
311.73,311.73,311.73,311.73,311.73,311.73,311.73,311.73,311.73,311.73,311.73,311.73,311.73,311.73,311.73,311.73,311.73,311.73,311.73,311.73,312.20,312.20,312.20,312.20,312.67,313.13,313.60,315.00,315.47,316.40,316.40,314.53,314.07,313.13,311.27,309.40,308.93,308.00,306.60,303.80,301.00,301.00,301.00,301.00,301.00,301.00,301.00,301.00,301.00,301.00,301.00,301.00,301.00,301.00,301.00,301.00,301.00,301.00,301.00,301.00,301.00,302.40,302.40,302.40,302.87,303.80,303.80,303.80,303.80,303.80,303.33,303.80,303.80,303.80,303.80,303.80,303.80,303.80,303.80,303.80,303.80,303.80,303.80,303.80,303.80,303.80,303.80,303.80,303.80,303.80,303.33,303.33,302.87,303.33,302.87,302.87,302.87,302.87,302.87,302.87,302.87,302.87,302.87,302.87,302.87,303.33,303.33,303.33,303.80,304.27,303.80,303.80,304.27,305.67,306.13,306.60,307.53,307.53,307.53,307.53,309.87,310.80,313.13,313.13,313.13,315.47,315.47,315.47,317.33,317.33,317.33,318.73,318.73,318.73,320.60,322.93,327.13,327.13,330.40,336.93,357.00,369.13,369.13,380.80,389.20,393.40,393.40,398.53,384.53,363.53,363.53,357.00,347.20,337.40,337.40,337.40,327.60,327.60,327.60,327.60,322.47,322.47,322.47,322.47,322.47,322.47,322.47,322.47,322.47,322.47,322.47,322.47,322.47,322.47,322.47,322.47,322.47,322.47,322.47,322.47,322.47,322.47,322.47,318.73,318.73,318.73,318.73,318.73,318.73,322.47,322.47,322.47,322.47,322.47,322.47,327.60,327.60,327.60,327.60,327.60,327.60,327.60,327.60,327.60,327.60,327.60,327.60,327.60,327.60,327.60,327.60,327.60,327.60,327.60,327.60,327.60,327.60,327.60,327.60,327.60,327.60,327.60,327.60,327.60,322.47,322.47,322.47,322.47,327.60,327.60,327.60,327.60,327.60,327.60,322.47,322.47,322.47,322.47,327.60,327.60,327.60,327.60,327.60,327.60,327.60,337.40,337.40,337.40,337.40,337.40,337.40,337.40,337.40,337.40,337.40,337.40,337.40,337.40,337.40,337.40,337.40,337.40,337.40,327.60,327.60,327.60,327.60,327.60,327.60,327.60,327.60,327.60,327.60,327.60,337.40,337.40,337.40,337.40,327.60,327.60,327.60,327.60,327.60,327.60,327.60,327.60,327.60,327.60,327.60,327.60,327.60,327.60,327.60,327.60,327.60,327.60,327.60,327.60,337.40,337.40,337.40,337.40,337.40,337.40,337.40,337.40,337.40,337.40,337.40,337.40,337.40,337.40,337.40,337.40,337.40,337.40,337.40,337.40,337.40,337.40,337.40,337.40,337.40,337.40,337.40,337.40,337.40,337.40,337.40,337.40,337.40,347.20,347.20,347.20,347.20,347.20,347.20,347.20,347.20,347.20,347.20,347.20,346.73,343.93,342.53,342.53,343.00,343.47,343.93,344.87,345.33,343.00,329.47,324.33,312.67,302.40,302.40,302.40,302.40,302.40,302.40,302.40,302.40,302.40,302.40,302.40,302.40,302.40,302.40,302.40,302.40,302.40,302.40,302.40,302.40,302.40,302.40,302.40,302.87,302.87,302.87,302.87,302.87,302.87,302.87,302.87,302.87,302.87,302.87,302.87,302.87,302.87,302.87,303.33,303.33,303.33,303.33,303.33,303.33,303.33,303.33,303.33,303.33,303.33,303.33,303.33,303.33,303.33,303.33,303.33,303.33,303.33,303.33,303.33,303.80,303.33,303.33,303.33,303.33,303.33,303.33,303.33,303.33,303.33,303.33,303.33
311.73,311.73,311.73,311.73,311.73,311.73,311.73,311.73,311.73,312.20,311.73,312.20,311.73,311.73,312.20,311.73,312.20,311.73,311.73,312.20,312.20,311.73,312.20,312.20,312.20,312.67,313.60,314.07,315.00,313.60,311.73,309.40,309.40,308.93,308.47,305.20,305.67,301.47,301.00,301.00,301.00,301.00,301.00,301.00,301.00,301.00,301.00,301.00,301.00,301.00,301.00,301.00,301.00,301.00,301.00,301.00,301.00,301.00,301.00,301.00,301.00,301.00,301.47,301.93,301.93,302.40,302.87,303.33,303.80,303.80,303.80,303.80,303.80,303.80,303.80,303.80,303.80,303.80,303.80,303.80,303.80,303.80,303.80,303.80,303.80,303.80,303.80,303.80,303.80,302.87,301.47,301.47,302.87,302.87,302.87,302.87,302.87,302.87,302.87,302.87,302.87,302.87,302.87,302.87,302.87,302.87,302.87,302.87,303.33,303.80,303.80,303.80,303.80,304.73,306.13,306.13,307.07,307.53,307.53,307.53,309.87,310.80,313.13,313.13,313.13,315.47,315.47,315.47,315.47,317.33,317.33,318.73,320.60,320.60,320.60,323.87,327.13,327.13,330.40,343.93,357.00,369.13,369.13,380.80,389.20,393.40,393.40,398.53,384.53,363.53,363.53,357.00,347.20,337.40,337.40,337.40,327.60,327.60,327.60,327.60,322.47,322.47,322.47,322.47,318.73,318.73,318.73,318.73,318.73,318.73,318.73,318.73,322.47,322.47,318.73,322.47,322.47,322.47,322.47,322.47,322.47,322.47,322.47,318.73,318.73,318.73,318.73,318.73,318.73,318.73,322.47,322.47,322.47,322.47,322.47,322.47,327.60,327.60,327.60,327.60,327.60,327.60,327.60,327.60,327.60,327.60,327.60,327.60,327.60,327.60,327.60,327.60,327.60,327.60,327.60,327.60,327.60,327.60,327.60,327.60,327.60,327.60,327.60,327.60,327.60,327.60,327.60,327.60,322.47,322.47,322.47,322.47,322.47,322.47,322.47,322.47,322.47,322.47,327.60,327.60,327.60,327.60,327.60,327.60,327.60,337.40,337.40,337.40,337.40,337.40,337.40,337.40,337.40,337.40,337.40,337.40,337.40,337.40,337.40,337.40,337.40,337.40,337.40,337.40,337.40,337.40,337.40,337.40,337.40,337.40,337.40,337.40,337.40,337.40,337.40,337.40,337.40,337.40,337.40,327.60,327.60,327.60,327.60,327.60,327.60,327.60,327.60,327.60,327.60,327.60,327.60,327.60,327.60,327.60,327.60,327.60,327.60,327.60,337.40,337.40,337.40,337.40,337.40,337.40,337.40,337.40,337.40,337.40,337.40,337.40,337.40,337.40,337.40,337.40,337.40,337.40,337.40,337.40,337.40,337.40,337.40,337.40,337.40,337.40,337.40,337.40,337.40,337.40,337.40,337.40,337.40,347.20,347.20,347.20,347.20,347.20,347.20,347.20,347.20,347.20,347.20,347.20,344.87,342.07,341.13,342.07,342.53,343.47,344.40,345.33,345.80,345.80,343.47,331.33,324.33,313.13,302.40,302.40,302.40,302.40,302.40,302.40,302.40,302.40,302.40,302.40,302.40,302.40,302.40,302.40,302.40,302.40,302.40,302.40,302.40,302.40,302.40,302.40,302.40,302.40,302.40,302.40,302.87,302.87,302.87,302.87,302.87,302.87,302.87,302.87,302.87,302.87,302.87,303.33,303.33,303.33,303.33,303.33,303.33,303.33,303.33,303.33,303.33,303.33,303.33,303.33,303.33,303.33,303.33,303.33,303.33,303.33,303.33,303.33,303.33,303.33,303.33,303.33,303.33,303.33,303.33,303.33,303.33,303.33,303.33,303.33
312.67,312.20,312.20,311.73,311.73,311.73,311.73,311.73,311.73,311.73,311.73,311.73,311.73,311.73,311.73,311.73,311.73,312.20,312.20,311.73,311.73,312.20,312.20,312.20,312.20,312.67,312.67,310.80,309.40,308.93,308.00,305.20,305.67,301.93,301.93,301.00,301.00,301.00,301.00,301.00,301.00,301.00,301.00,301.00,301.00,301.00,301.00,301.00,301.00,301.00,301.00,301.00,301.00,301.00,301.00,301.00,301.00,301.00,301.00,301.00,301.00,301.00,301.00,301.00,301.47,301.93,301.93,302.40,302.87,303.33,303.33,303.80,303.80,303.80,303.80,303.80,303.80,303.80,303.80,303.80,303.80,303.80,303.80,303.80,303.80,303.33,302.87,302.87,302.40,302.40,301.47,301.47,302.87,302.87,302.87,302.87,302.87,302.87,302.87,302.87,302.87,302.87,302.87,302.87,302.87,302.87,302.87,302.87,303.33,303.80,303.80,303.80,303.80,305.20,306.13,307.07,307.07,309.87,309.87,309.87,310.80,313.13,313.13,313.13,315.47,315.47,315.47,315.47,315.47,317.33,317.33,318.73,320.60,322.93,322.93,323.87,327.13,327.13,333.67,343.93,357.00,369.13,369.13,384.07,389.20,393.40,393.40,398.53,384.53,363.53,363.53,357.00,347.20,337.40,337.40,337.40,327.60,327.60,327.60,322.47,322.47,322.47,318.73,318.73,318.73,318.73,318.73,318.73,318.73,318.73,318.73,318.73,318.73,318.73,318.73,318.73,318.73,318.73,322.47,322.47,322.47,322.47,322.47,318.73,318.73,318.73,318.73,318.73,318.73,318.73,322.47,322.47,322.47,322.47,322.47,322.47,322.47,322.47,322.47,327.60,327.60,327.60,327.60,327.60,327.60,327.60,327.60,327.60,327.60,327.60,327.60,327.60,327.60,327.60,327.60,327.60,327.60,327.60,327.60,327.60,327.60,327.60,327.60,327.60,327.60,327.60,327.60,327.60,327.60,322.47,327.60,327.60,327.60,327.60,327.60,322.47,322.47,322.47,327.60,327.60,327.60,327.60,327.60,327.60,327.60,337.40,337.40,337.40,337.40,337.40,337.40,337.40,337.40,337.40,337.40,347.20,347.20,347.20,347.20,347.20,347.20,337.40,337.40,337.40,337.40,337.40,337.40,337.40,337.40,337.40,337.40,337.40,337.40,337.40,337.40,337.40,337.40,337.40,337.40,337.40,337.40,337.40,327.60,327.60,327.60,327.60,327.60,327.60,327.60,327.60,327.60,327.60,327.60,327.60,327.60,327.60,327.60,327.60,337.40,337.40,337.40,337.40,337.40,337.40,337.40,337.40,337.40,337.40,337.40,337.40,337.40,337.40,337.40,337.40,337.40,337.40,337.40,337.40,337.40,337.40,337.40,337.40,337.40,337.40,337.40,337.40,337.40,337.40,337.40,337.40,337.40,337.40,337.40,347.20,347.20,347.20,347.20,347.20,347.20,347.20,347.20,347.20,337.40,337.40,340.67,342.07,343.00,344.40,345.33,345.80,345.80,346.27,346.73,343.93,332.27,325.27,313.60,303.33,302.40,302.40,302.40,302.40,302.40,302.40,302.40,302.40,302.40,302.40,302.40,302.40,302.40,302.40,302.40,302.40,302.40,302.40,302.40,302.40,302.40,302.40,302.40,302.40,302.87,302.87,302.87,302.87,302.87,302.87,302.87,302.87,302.87,302.87,302.87,302.87,302.87,302.87,303.33,303.33,303.33,303.33,303.33,303.33,303.33,303.33,303.33,303.33,303.33,303.33,303.33,303.33,303.33,303.33,303.33,303.33,303.33,303.80,303.33,303.33,303.33,303.33,303.33,303.33,303.33,303.33,303.33,303.33
313.13,312.20,312.20,311.73,311.73,311.73,311.73,312.20,311.73,312.20,311.73,312.20,311.73,312.20,312.20,312.20,312.20,311.73,311.73,312.20,312.20,311.73,312.20,312.20,312.20,311.27,308.47,308.00,306.60,305.20,301.47,301.00,301.00,301.00,301.00,301.00,301.00,301.00,301.00,301.00,301.00,301.00,301.00,301.00,301.00,301.00,301.00,301.00,301.00,301.00,301.00,301.00,301.00,301.00,301.00,301.00,301.00,301.00,301.00,301.00,301.00,301.00,301.00,301.00,301.00,301.00,301.47,301.93,301.93,302.40,302.40,302.87,303.80,303.33,303.80,303.80,303.80,303.80,303.80,303.80,303.80,303.33,303.33,302.87,302.87,302.40,302.40,302.40,301.47,301.47,301.47,301.47,301.93,301.93,301.93,301.93,301.93,302.40,302.40,302.87,302.87,302.87,302.87,302.87,302.87,302.87,302.87,302.87,303.33,303.33,303.80,303.80,303.80,304.73,306.13,307.07,307.07,309.87,309.87,309.87,310.80,313.13,313.13,313.13,315.47,315.47,315.47,315.47,315.47,317.33,317.33,318.73,320.60,322.93,322.93,323.87,327.13,327.13,333.67,343.93,357.00,369.13,369.13,384.07,389.20,393.40,393.40,398.53,384.53,373.33,373.33,357.00,347.20,347.20,347.20,337.40,327.60,327.60,327.60,322.47,322.47,322.47,318.73,318.73,318.73,318.73,318.73,318.73,318.73,318.73,318.73,318.73,318.73,318.73,318.73,318.73,318.73,318.73,322.47,322.47,322.47,322.47,322.47,318.73,318.73,318.73,318.73,318.73,318.73,318.73,322.47,322.47,322.47,322.47,322.47,322.47,322.47,322.47,322.47,327.60,327.60,327.60,327.60,327.60,327.60,327.60,327.60,327.60,327.60,327.60,327.60,327.60,327.60,327.60,327.60,327.60,327.60,327.60,327.60,327.60,327.60,327.60,327.60,327.60,327.60,327.60,327.60,327.60,327.60,322.47,327.60,327.60,327.60,327.60,327.60,322.47,322.47,322.47,327.60,327.60,327.60,327.60,327.60,327.60,327.60,327.60,327.60,337.40,337.40,337.40,337.40,337.40,337.40,337.40,337.40,347.20,347.20,347.20,347.20,347.20,347.20,337.40,337.40,337.40,337.40,337.40,337.40,337.40,337.40,337.40,337.40,337.40,337.40,337.40,337.40,337.40,337.40,337.40,337.40,337.40,337.40,337.40,327.60,327.60,327.60,327.60,327.60,327.60,327.60,327.60,327.60,327.60,327.60,327.60,327.60,327.60,327.60,327.60,337.40,337.40,337.40,337.40,337.40,337.40,337.40,337.40,337.40,337.40,337.40,337.40,337.40,337.40,337.40,337.40,337.40,337.40,337.40,337.40,337.40,337.40,337.40,337.40,337.40,337.40,337.40,337.40,337.40,337.40,337.40,337.40,337.40,337.40,337.40,347.20,347.20,347.20,347.20,347.20,337.40,347.20,347.20,337.40,337.40,337.40,341.13,342.53,344.87,345.33,345.80,346.27,346.73,346.73,346.73,347.20,344.87,332.73,326.20,310.80,302.87,302.40,302.40,302.40,302.40,302.40,302.40,302.40,302.40,302.40,302.40,302.40,302.40,302.40,302.40,302.40,302.40,302.40,302.40,302.40,302.40,302.40,302.40,302.40,302.87,302.87,302.87,302.87,302.87,302.87,302.87,302.87,302.87,302.87,302.87,302.87,302.87,302.87,303.33,303.33,303.33,303.33,303.33,303.33,303.33,303.33,303.33,303.33,303.33,303.33,303.33,303.33,303.33,303.33,303.33,303.33,303.33,303.33,303.33,303.33,303.33,303.33,303.33,303.33,303.33,303.33,303.33,303.33
313.13,312.20,312.20,312.20,312.20,312.20,311.73,311.73,312.20,311.73,311.73,312.20,312.20,311.73,311.73,311.73,312.20,312.20,312.20,311.73,312.20,312.20,312.20,312.20,310.33,307.53,306.60,303.80,302.40,301.00,301.00,301.00,301.00,301.00,301.00,301.00,301.00,301.00,301.00,301.00,301.00,301.00,301.00,301.00,301.00,301.00,301.00,301.00,301.00,301.00,301.00,301.00,301.00,301.00,301.00,301.00,301.00,301.00,301.00,301.00,301.00,301.00,301.00,301.00,301.00,301.00,301.00,301.00,301.47,301.47,301.93,302.40,302.40,302.40,302.87,302.87,302.87,302.87,302.87,302.87,302.87,302.40,302.40,302.40,302.40,301.93,301.47,301.47,301.47,301.47,301.47,301.47,301.47,301.93,301.93,301.93,301.93,301.93,301.93,302.40,302.40,302.87,302.87,302.87,302.87,302.87,302.87,302.87,302.87,302.87,303.80,303.80,303.80,305.67,307.53,307.07,308.93,313.13,313.13,313.13,313.13,313.13,313.13,313.13,313.13,313.13,313.13,315.47,315.47,315.47,315.47,317.33,318.73,318.73,322.93,323.87,327.13,327.13,333.67,343.93,357.00,369.13,369.13,380.80,387.33,393.40,393.40,396.20,384.53,373.33,373.33,363.53,347.20,347.20,347.20,337.40,327.60,327.60,327.60,322.47,322.47,322.47,318.73,318.73,318.73,318.73,318.73,318.73,318.73,318.73,318.73,318.73,318.73,318.73,318.73,318.73,322.47,322.47,322.47,322.47,322.47,322.47,322.47,318.73,318.73,318.73,318.73,318.73,318.73,318.73,318.73,318.73,322.47,322.47,322.47,322.47,322.47,322.47,322.47,322.47,322.47,322.47,322.47,322.47,322.47,322.47,322.47,322.47,322.47,322.47,327.60,327.60,327.60,327.60,327.60,327.60,327.60,327.60,327.60,327.60,327.60,327.60,327.60,327.60,327.60,327.60,327.60,327.60,327.60,322.47,327.60,327.60,327.60,327.60,327.60,322.47,322.47,327.60,327.60,327.60,327.60,327.60,327.60,327.60,327.60,327.60,327.60,337.40,337.40,337.40,337.40,337.40,337.40,337.40,337.40,347.20,347.20,347.20,347.20,347.20,347.20,337.40,337.40,337.40,337.40,337.40,337.40,337.40,337.40,337.40,337.40,337.40,337.40,337.40,337.40,337.40,337.40,337.40,337.40,337.40,337.40,337.40,337.40,327.60,327.60,327.60,327.60,327.60,327.60,327.60,327.60,327.60,327.60,327.60,327.60,327.60,337.40,337.40,337.40,337.40,337.40,337.40,337.40,337.40,337.40,337.40,337.40,337.40,337.40,337.40,337.40,337.40,337.40,337.40,337.40,337.40,337.40,337.40,337.40,337.40,337.40,337.40,337.40,337.40,337.40,337.40,337.40,337.40,337.40,337.40,337.40,337.40,337.40,347.20,347.20,347.20,347.20,347.20,347.20,347.20,347.20,347.20,347.20,347.20,337.40,344.40,346.27,345.80,346.27,346.73,346.73,346.73,347.20,347.20,347.67,344.87,331.80,324.33,313.60,302.87,303.33,302.40,302.40,302.40,302.40,302.40,302.40,302.40,302.40,302.40,302.40,302.40,302.40,302.40,302.40,302.40,302.40,302.40,302.40,302.40,302.40,302.40,302.40,302.40,302.40,302.87,302.87,302.87,302.87,302.87,302.87,302.87,302.87,302.87,302.87,302.87,302.87,303.33,303.33,303.33,303.33,303.33,303.33,303.33,303.33,303.33,303.33,303.33,303.33,303.33,303.33,303.33,303.33,303.33,303.33,303.33,303.33,303.33,303.33,303.33,303.33,303.33,303.33,303.33,303.33,303.33
313.13,312.67,312.20,312.20,312.20,311.73,312.20,311.73,312.20,312.20,312.20,311.73,312.20,312.20,312.20,312.20,311.73,311.73,312.20,312.20,311.73,312.20,312.20,309.40,307.07,306.13,303.33,301.00,301.00,301.00,301.00,301.00,301.00,301.00,301.00,301.00,301.00,301.00,301.00,301.00,301.00,301.00,301.00,301.00,301.00,301.00,301.00,301.00,301.00,301.00,301.00,301.00,301.00,301.00,301.00,301.00,301.00,301.00,301.00,301.00,301.00,301.00,301.00,301.00,301.00,301.00,301.00,301.00,301.00,301.00,301.00,301.47,301.93,301.93,302.40,302.40,302.40,301.93,302.40,301.93,301.93,301.93,301.93,301.47,301.47,301.47,301.47,301.47,301.47,301.47,301.47,301.47,301.47,301.93,301.93,301.93,301.93,301.93,301.93,302.40,302.40,302.87,302.87,302.87,302.87,302.87,302.87,302.87,302.87,302.87,303.33,304.27,304.73,305.67,308.47,309.87,311.27,313.13,313.13,313.13,313.13,313.13,313.13,313.13,313.13,313.13,313.13,315.47,315.47,315.47,315.47,317.33,318.73,318.73,322.93,323.87,330.40,333.67,333.67,343.93,357.00,369.13,369.13,380.80,387.33,390.60,390.60,396.20,398.53,373.33,373.33,363.53,347.20,347.20,347.20,337.40,327.60,327.60,327.60,322.47,322.47,322.47,318.73,318.73,318.73,318.73,316.40,316.40,316.40,318.73,318.73,318.73,318.73,318.73,318.73,318.73,322.47,322.47,322.47,322.47,322.47,322.47,322.47,318.73,318.73,318.73,318.73,318.73,318.73,318.73,318.73,318.73,318.73,318.73,318.73,322.47,322.47,322.47,322.47,322.47,322.47,322.47,322.47,322.47,322.47,322.47,322.47,322.47,322.47,322.47,322.47,322.47,322.47,327.60,327.60,327.60,327.60,327.60,327.60,327.60,327.60,327.60,327.60,327.60,327.60,327.60,327.60,327.60,327.60,322.47,327.60,327.60,327.60,327.60,327.60,327.60,327.60,327.60,327.60,327.60,327.60,327.60,327.60,327.60,327.60,327.60,327.60,337.40,337.40,337.40,337.40,337.40,337.40,337.40,337.40,337.40,337.40,337.40,337.40,337.40,337.40,337.40,337.40,337.40,337.40,337.40,337.40,337.40,337.40,337.40,337.40,337.40,337.40,337.40,337.40,337.40,337.40,337.40,337.40,337.40,337.40,337.40,337.40,337.40,337.40,337.40,337.40,337.40,337.40,337.40,337.40,337.40,337.40,337.40,337.40,337.40,337.40,337.40,337.40,337.40,337.40,337.40,337.40,337.40,337.40,337.40,337.40,337.40,337.40,337.40,337.40,337.40,337.40,337.40,337.40,337.40,337.40,337.40,337.40,337.40,337.40,337.40,337.40,337.40,337.40,337.40,347.20,347.20,347.20,347.20,347.20,347.20,347.20,347.20,347.20,347.20,347.20,347.20,347.20,347.20,347.20,347.20,347.20,347.20,347.20,347.20,347.20,346.73,346.73,347.20,346.73,347.20,347.20,347.67,348.13,349.07,343.47,332.27,327.60,321.07,311.73,302.87,302.87,302.40,302.40,302.40,302.40,302.40,302.40,302.40,302.40,302.40,302.40,302.40,302.40,302.40,302.40,302.40,302.40,302.40,302.40,302.40,302.40,302.40,302.40,302.40,302.87,302.87,302.87,302.87,302.87,302.87,302.87,302.87,302.87,302.87,302.87,302.87,302.87,302.87,303.33,303.33,303.33,303.33,303.33,303.33,303.33,303.33,303.33,303.33,303.33,303.33,303.33,303.33,303.33,303.33,303.33,303.33,303.33,303.33,303.33,303.33,303.33,303.33,303.33,303.33
313.60,312.67,312.20,312.20,312.20,312.20,311.73,312.20,311.73,312.20,311.73,312.20,311.73,312.20,312.20,312.20,312.20,312.20,311.73,311.73,312.20,312.20,309.40,306.60,304.73,301.47,301.00,301.00,301.00,301.00,301.00,301.00,301.00,301.00,301.00,301.00,301.00,301.00,301.00,301.00,301.00,301.00,301.00,301.00,301.00,301.00,301.00,301.00,301.00,301.00,301.00,301.00,301.00,301.00,301.00,301.00,301.00,301.00,301.00,301.00,301.00,301.00,301.00,301.00,301.00,301.00,301.00,301.00,301.00,301.00,301.00,301.00,301.00,301.00,301.47,301.47,301.47,301.47,301.00,301.00,301.00,301.00,301.00,301.47,301.47,301.47,301.47,301.47,301.47,301.47,301.47,301.47,301.47,301.47,301.47,301.93,301.93,301.93,301.93,301.93,302.40,302.40,302.40,302.40,302.87,302.87,302.87,302.87,302.87,302.87,303.33,303.33,303.80,307.07,308.47,310.80,312.67,313.13,313.13,313.13,313.13,313.13,313.13,313.13,313.13,313.13,313.13,313.13,315.47,315.47,315.47,317.33,318.73,318.73,322.93,323.87,330.40,336.93,336.93,343.93,357.00,369.13,369.13,384.07,387.33,390.60,390.60,396.20,398.53,373.33,373.33,363.53,347.20,347.20,347.20,337.40,327.60,327.60,327.60,322.47,318.73,318.73,318.73,318.73,316.40,316.40,316.40,316.40,316.40,316.40,318.73,318.73,318.73,318.73,318.73,318.73,322.47,322.47,322.47,322.47,322.47,322.47,322.47,318.73,318.73,318.73,318.73,318.73,318.73,318.73,318.73,318.73,318.73,318.73,318.73,318.73,322.47,322.47,322.47,322.47,322.47,322.47,322.47,322.47,322.47,322.47,322.47,322.47,322.47,322.47,322.47,322.47,322.47,322.47,327.60,327.60,327.60,327.60,327.60,327.60,327.60,327.60,327.60,327.60,327.60,327.60,327.60,327.60,327.60,322.47,327.60,327.60,327.60,327.60,327.60,327.60,327.60,327.60,327.60,327.60,327.60,327.60,327.60,327.60,327.60,327.60,327.60,327.60,337.40,337.40,337.40,337.40,337.40,337.40,337.40,337.40,337.40,337.40,337.40,337.40,337.40,337.40,337.40,337.40,337.40,337.40,337.40,337.40,337.40,337.40,337.40,337.40,337.40,337.40,337.40,337.40,337.40,337.40,337.40,337.40,337.40,337.40,337.40,337.40,337.40,337.40,337.40,337.40,337.40,337.40,337.40,337.40,337.40,337.40,337.40,337.40,337.40,337.40,337.40,337.40,337.40,337.40,337.40,337.40,337.40,337.40,337.40,337.40,337.40,337.40,337.40,337.40,337.40,337.40,337.40,337.40,337.40,337.40,337.40,337.40,337.40,337.40,337.40,337.40,337.40,337.40,347.20,347.20,347.20,347.20,347.20,347.20,347.20,347.20,347.20,347.20,347.20,347.20,347.20,347.20,347.20,347.20,347.20,347.20,347.20,347.20,347.20,346.73,347.20,347.20,347.20,347.20,347.67,348.13,349.07,350.47,351.87,347.20,339.27,330.87,327.60,320.13,306.13,302.40,302.40,302.40,302.40,302.40,302.40,302.40,302.40,302.40,302.40,302.40,302.40,302.40,302.40,302.40,302.40,302.40,302.40,302.40,302.40,302.40,302.40,302.40,302.40,302.40,302.40,302.87,302.87,302.87,302.87,302.87,302.87,302.87,302.87,302.87,302.87,302.87,302.87,302.87,302.87,303.33,303.33,303.33,303.33,303.33,303.33,303.33,303.33,303.33,303.33,303.33,303.33,303.33,303.33,303.33,303.33,303.33,303.33,303.33,303.33,303.33,303.33,303.33
313.60,312.67,312.20,312.20,312.20,312.20,312.20,312.20,312.20,312.20,311.73,312.20,311.73,312.20,311.73,311.73,312.20,312.20,312.20,312.20,311.27,309.87,307.07,305.20,301.47,301.00,301.00,301.00,301.00,301.00,301.00,301.00,301.00,301.00,301.00,301.00,301.00,301.00,301.00,301.00,301.00,301.00,301.00,301.00,301.00,301.00,301.00,301.00,301.00,301.00,301.00,301.00,301.00,301.00,301.00,301.00,301.00,301.00,301.00,301.00,301.00,301.00,301.00,301.00,301.00,301.00,301.00,301.00,301.00,301.00,301.00,301.00,301.00,301.00,301.00,301.00,301.00,301.00,301.00,301.00,301.00,301.00,301.47,301.47,301.47,301.47,301.47,301.47,301.47,301.47,301.47,301.47,301.47,301.47,301.47,301.47,301.93,301.93,301.93,301.93,302.40,302.40,302.40,302.40,302.87,302.87,302.87,302.87,302.87,302.87,302.87,303.80,305.67,307.07,310.33,311.73,312.20,313.13,313.13,313.13,313.13,313.13,313.13,313.13,313.13,313.13,313.13,313.13,313.13,315.47,315.47,317.33,318.73,318.73,322.93,323.87,330.40,336.93,336.93,343.93,357.00,369.13,369.13,380.80,387.33,390.60,390.60,396.20,398.53,373.33,373.33,363.53,347.20,347.20,347.20,337.40,327.60,327.60,327.60,322.47,318.73,318.73,318.73,318.73,316.40,316.40,316.40,316.40,316.40,316.40,318.73,318.73,318.73,318.73,318.73,322.47,322.47,322.47,322.47,322.47,322.47,322.47,322.47,318.73,318.73,318.73,318.73,318.73,318.73,318.73,318.73,318.73,318.73,318.73,318.73,318.73,322.47,322.47,322.47,322.47,322.47,322.47,322.47,322.47,322.47,322.47,322.47,322.47,322.47,322.47,322.47,322.47,322.47,322.47,327.60,327.60,327.60,327.60,327.60,327.60,327.60,327.60,327.60,327.60,327.60,327.60,327.60,327.60,327.60,327.60,327.60,327.60,327.60,327.60,327.60,327.60,327.60,327.60,327.60,327.60,327.60,327.60,327.60,327.60,327.60,327.60,327.60,327.60,337.40,337.40,337.40,337.40,337.40,337.40,337.40,337.40,337.40,337.40,337.40,337.40,337.40,337.40,337.40,337.40,337.40,337.40,337.40,337.40,337.40,337.40,337.40,337.40,337.40,337.40,337.40,337.40,337.40,337.40,337.40,337.40,337.40,337.40,337.40,337.40,337.40,337.40,337.40,337.40,337.40,337.40,337.40,337.40,337.40,337.40,337.40,337.40,337.40,337.40,337.40,337.40,337.40,337.40,337.40,337.40,337.40,337.40,337.40,337.40,337.40,337.40,337.40,337.40,337.40,337.40,337.40,337.40,337.40,337.40,337.40,337.40,337.40,337.40,347.20,347.20,347.20,347.20,347.20,347.20,347.20,347.20,347.20,347.20,347.20,347.20,347.20,347.20,347.20,347.20,347.20,347.20,347.20,347.20,347.20,347.20,347.20,347.20,347.20,347.20,347.20,346.73,347.20,347.20,347.20,348.60,350.00,351.87,353.27,353.27,353.27,347.67,338.80,328.53,321.07,307.53,302.87,302.40,302.40,302.40,302.40,302.40,302.40,302.40,302.40,302.40,302.40,302.40,302.40,302.40,302.40,302.40,302.40,302.40,302.40,302.40,302.40,302.40,302.40,302.40,302.40,302.87,302.87,302.87,302.87,302.87,302.87,302.87,302.87,302.87,302.87,302.87,302.87,302.87,302.87,303.33,303.33,303.33,303.33,303.33,303.33,303.33,303.33,303.33,303.33,303.33,303.33,303.33,303.33,303.33,303.33,303.33,303.33,303.33,303.33,303.33,303.33,303.33
313.60,312.67,312.20,312.20,312.20,312.20,312.20,312.20,311.73,312.20,312.20,312.20,309.87,309.40,309.40,309.40,309.40,309.40,309.40,308.93,308.00,306.60,305.20,301.47,301.00,301.00,301.00,301.00,301.00,301.00,301.00,301.00,301.00,301.00,301.00,301.00,301.00,301.00,301.00,301.00,301.00,301.00,301.00,301.00,301.00,301.00,301.00,301.00,301.00,301.00,301.00,301.00,301.00,301.00,301.00,301.00,301.00,301.00,301.00,301.00,301.00,301.00,301.00,301.00,301.00,301.00,301.00,301.00,301.00,301.00,301.00,301.00,301.00,301.00,301.00,301.00,301.00,301.00,301.00,301.00,301.00,301.00,301.00,301.47,301.47,301.47,301.47,301.47,301.47,301.47,301.47,301.47,301.47,301.47,301.47,301.47,301.47,301.93,301.93,301.93,301.93,302.40,302.40,302.40,302.87,302.87,302.87,302.87,302.87,302.87,302.87,302.87,305.20,307.07,310.80,312.20,313.13,310.80,310.80,310.80,310.80,310.80,310.80,310.80,310.80,313.13,313.13,313.13,313.13,313.13,313.13,315.47,318.73,318.73,322.93,327.13,330.40,336.93,336.93,350.47,362.13,375.67,375.67,380.80,387.33,390.60,390.60,396.20,398.53,373.33,373.33,363.53,357.00,347.20,347.20,337.40,327.60,322.47,322.47,322.47,318.73,318.73,318.73,316.40,316.40,316.40,316.40,316.40,316.40,316.40,318.73,318.73,318.73,318.73,318.73,322.47,322.47,322.47,322.47,322.47,322.47,322.47,322.47,318.73,318.73,318.73,318.73,318.73,318.73,318.73,318.73,318.73,318.73,318.73,318.73,322.47,322.47,322.47,322.47,322.47,322.47,322.47,322.47,322.47,322.47,322.47,322.47,322.47,322.47,322.47,322.47,322.47,322.47,322.47,322.47,322.47,327.60,327.60,327.60,327.60,327.60,327.60,327.60,327.60,327.60,327.60,327.60,327.60,327.60,327.60,327.60,327.60,327.60,327.60,327.60,327.60,327.60,327.60,327.60,327.60,327.60,327.60,327.60,327.60,327.60,327.60,327.60,327.60,327.60,327.60,337.40,337.40,337.40,337.40,337.40,337.40,337.40,337.40,337.40,337.40,337.40,337.40,337.40,337.40,337.40,337.40,337.40,337.40,337.40,337.40,337.40,337.40,337.40,337.40,337.40,337.40,337.40,337.40,337.40,337.40,337.40,337.40,337.40,337.40,337.40,337.40,337.40,337.40,337.40,337.40,337.40,337.40,337.40,337.40,337.40,337.40,337.40,337.40,337.40,337.40,337.40,337.40,337.40,337.40,337.40,337.40,337.40,337.40,337.40,337.40,337.40,337.40,337.40,337.40,337.40,337.40,337.40,337.40,337.40,347.20,347.20,347.20,347.20,347.20,347.20,347.20,347.20,347.20,347.20,347.20,347.20,347.20,347.20,347.20,347.20,347.20,347.20,347.20,347.20,347.20,347.20,347.20,347.20,347.20,347.20,347.20,347.20,347.20,347.20,347.20,347.20,347.20,348.60,350.00,351.87,353.27,354.20,353.73,353.27,353.27,352.33,341.60,328.53,322.47,307.53,302.40,302.40,302.40,302.40,302.40,302.40,302.40,302.40,302.40,302.40,302.40,302.40,302.40,302.40,302.40,302.40,302.40,302.40,302.40,302.40,302.40,302.40,302.40,302.40,302.40,302.40,302.40,302.87,302.87,302.87,302.87,302.87,302.87,302.87,302.87,302.87,302.87,302.87,302.87,302.87,302.87,303.33,303.33,303.33,303.33,303.33,303.33,303.33,303.33,303.33,303.33,303.33,303.33,303.33,303.33,303.33,303.33,303.33,303.33,303.33,303.33
313.60,312.67,312.67,312.20,312.20,312.20,312.20,312.20,312.20,312.20,310.80,308.00,307.53,307.07,307.07,307.07,307.07,307.07,307.07,306.60,306.13,304.27,301.00,301.00,301.00,301.00,301.00,301.00,301.00,301.00,301.00,301.00,301.00,301.00,301.00,301.00,301.00,301.00,301.00,301.00,301.00,301.00,301.00,301.00,301.00,301.00,301.00,301.00,301.00,301.00,301.00,301.00,301.00,301.00,301.00,301.00,301.00,301.00,301.00,301.00,301.00,301.00,301.00,301.00,301.00,301.00,301.00,301.00,301.00,301.00,301.00,301.00,301.00,301.00,301.00,301.00,301.00,301.00,301.00,301.00,301.00,301.00,301.00,301.47,301.47,301.47,301.47,301.47,301.47,301.47,301.47,301.47,301.47,301.47,301.47,301.47,301.47,301.93,301.93,301.93,301.93,302.40,302.40,302.40,302.87,302.87,302.87,302.87,302.87,302.87,303.33,302.87,305.20,307.07,311.27,311.73,313.13,310.80,310.80,310.80,310.80,310.80,310.80,310.80,310.80,313.13,313.13,313.13,313.13,313.13,313.13,315.47,318.73,318.73,322.93,333.67,333.67,343.93,343.93,350.47,362.13,375.67,375.67,384.07,387.33,390.60,390.60,396.20,398.53,373.33,373.33,363.53,357.00,347.20,347.20,337.40,327.60,322.47,322.47,322.47,318.73,318.73,318.73,316.40,316.40,316.40,316.40,316.40,316.40,316.40,318.73,318.73,318.73,318.73,318.73,322.47,322.47,322.47,322.47,322.47,322.47,322.47,322.47,318.73,318.73,318.73,318.73,318.73,318.73,318.73,318.73,318.73,318.73,318.73,318.73,322.47,322.47,322.47,322.47,322.47,322.47,322.47,322.47,322.47,322.47,318.73,318.73,322.47,322.47,322.47,322.47,322.47,322.47,322.47,322.47,322.47,322.47,322.47,322.47,327.60,327.60,322.47,322.47,322.47,322.47,322.47,322.47,327.60,327.60,327.60,327.60,327.60,327.60,327.60,327.60,327.60,327.60,327.60,327.60,327.60,327.60,327.60,327.60,327.60,327.60,327.60,327.60,327.60,327.60,327.60,327.60,337.40,337.40,337.40,337.40,337.40,337.40,337.40,337.40,337.40,337.40,337.40,337.40,337.40,337.40,337.40,337.40,337.40,337.40,337.40,337.40,337.40,337.40,337.40,337.40,337.40,337.40,337.40,347.20,347.20,347.20,347.20,347.20,347.20,347.20,347.20,347.20,347.20,347.20,347.20,347.20,347.20,347.20,347.20,347.20,347.20,337.40,337.40,337.40,337.40,337.40,347.20,347.20,337.40,337.40,337.40,337.40,337.40,337.40,337.40,337.40,337.40,337.40,337.40,337.40,337.40,337.40,337.40,337.40,347.20,347.20,347.20,347.20,347.20,347.20,347.20,347.20,347.20,347.20,347.20,347.20,347.20,347.20,347.20,347.20,347.20,347.20,347.20,347.20,347.20,347.20,347.20,347.20,347.20,347.20,347.20,347.20,347.20,347.20,347.20,347.20,348.60,350.00,351.40,353.27,354.20,354.20,353.73,353.27,352.80,352.33,351.87,340.67,329.47,324.80,312.67,304.27,302.40,302.40,302.40,302.40,302.40,302.40,302.40,302.40,302.40,302.40,302.40,302.40,302.40,302.40,302.40,302.40,302.40,302.40,302.40,302.40,302.40,302.40,302.40,302.40,302.40,302.40,302.40,302.87,302.87,302.87,302.87,302.87,302.87,302.87,302.87,302.87,302.87,302.87,302.87,302.87,302.87,302.87,302.87,303.33,303.33,303.33,303.33,303.33,303.33,303.33,303.33,303.33,303.33,303.33,303.33,303.33,303.33,303.33,303.33
313.60,312.67,312.67,312.67,312.20,312.20,312.20,312.20,311.27,308.93,307.07,306.13,303.80,301.93,301.93,301.93,301.93,301.93,301.93,301.93,301.47,301.00,301.00,301.00,301.00,301.00,301.00,301.00,301.00,301.00,301.00,301.00,301.00,301.00,301.00,301.00,301.00,301.00,301.00,301.00,301.00,301.00,301.00,301.00,301.00,301.00,301.00,301.00,301.00,301.00,301.00,301.00,301.00,301.00,301.00,301.00,301.00,301.00,301.00,301.00,301.00,301.00,301.00,301.00,301.00,301.00,301.00,301.00,301.00,301.00,301.00,301.00,301.00,301.00,301.00,301.00,301.00,301.00,301.00,301.00,301.00,301.00,301.00,301.47,301.47,301.47,301.47,301.47,301.47,301.47,301.47,301.47,301.47,301.47,301.47,301.47,301.47,301.93,301.93,301.93,301.93,301.93,302.40,302.40,302.87,302.87,302.87,302.87,302.87,302.87,302.87,302.87,306.13,306.60,310.33,311.27,310.80,310.80,310.80,310.80,310.80,310.80,310.80,310.80,310.80,310.80,310.80,310.80,313.13,313.13,313.13,315.47,318.73,318.73,322.93,327.13,333.67,343.93,343.93,350.47,362.13,375.67,375.67,384.07,387.33,390.60,390.60,393.40,398.53,373.33,373.33,363.53,357.00,347.20,347.20,337.40,327.60,322.47,322.47,322.47,318.73,318.73,318.73,316.40,316.40,316.40,316.40,316.40,318.73,318.73,318.73,318.73,318.73,318.73,318.73,322.47,322.47,322.47,322.47,322.47,322.47,322.47,322.47,318.73,318.73,318.73,318.73,318.73,318.73,318.73,318.73,318.73,318.73,318.73,318.73,322.47,322.47,322.47,322.47,322.47,322.47,322.47,322.47,322.47,322.47,318.73,318.73,322.47,322.47,322.47,322.47,322.47,322.47,322.47,322.47,322.47,322.47,322.47,322.47,327.60,327.60,322.47,322.47,322.47,322.47,322.47,322.47,327.60,327.60,327.60,327.60,327.60,327.60,327.60,327.60,327.60,327.60,327.60,327.60,327.60,327.60,327.60,327.60,327.60,327.60,327.60,327.60,327.60,327.60,327.60,327.60,327.60,327.60,327.60,337.40,337.40,337.40,337.40,337.40,337.40,337.40,337.40,337.40,337.40,337.40,337.40,337.40,337.40,337.40,337.40,337.40,337.40,337.40,337.40,337.40,337.40,337.40,337.40,347.20,347.20,347.20,347.20,347.20,347.20,347.20,347.20,347.20,347.20,347.20,347.20,347.20,347.20,347.20,347.20,347.20,347.20,337.40,337.40,337.40,337.40,337.40,347.20,347.20,337.40,337.40,337.40,337.40,337.40,337.40,337.40,337.40,337.40,337.40,337.40,337.40,337.40,337.40,337.40,337.40,347.20,347.20,347.20,347.20,347.20,347.20,347.20,347.20,347.20,347.20,347.20,347.20,347.20,347.20,347.20,347.20,347.20,347.20,347.20,348.13,347.20,347.20,347.20,347.20,347.20,347.20,347.20,347.20,347.20,347.20,347.20,348.13,349.53,350.93,353.27,354.67,354.67,354.20,353.73,353.27,352.80,351.87,351.40,350.47,341.13,332.73,328.07,321.53,312.67,305.20,302.87,302.40,302.40,302.40,302.40,302.40,302.40,302.40,302.40,302.40,302.40,302.40,302.40,302.40,302.40,302.40,302.40,302.40,302.40,302.40,302.40,302.40,302.40,302.40,302.40,302.87,302.87,302.87,302.87,302.87,302.87,302.87,302.87,302.87,302.87,302.87,302.87,302.87,302.87,302.87,302.87,303.33,303.33,303.33,303.33,303.33,303.33,303.33,303.33,303.33,303.33,303.33,303.33,303.33,303.33,303.33,303.33
313.13,312.67,312.67,312.67,311.27,310.33,309.40,308.00,307.07,306.13,304.73,302.87,301.00,301.00,300.53,301.00,301.00,301.00,301.00,301.00,301.00,301.00,301.00,301.00,301.00,301.00,301.00,301.00,301.00,301.00,301.00,301.00,301.00,301.00,301.00,301.00,301.00,301.00,301.00,301.00,301.00,301.00,301.00,301.00,301.00,301.00,301.00,301.00,301.00,301.00,301.00,301.00,301.00,301.00,301.00,301.00,301.00,301.00,301.00,301.00,301.00,301.00,301.00,301.00,301.00,301.00,301.00,301.00,301.00,301.00,301.00,301.00,301.00,301.00,301.00,301.00,301.00,301.00,301.00,301.00,301.00,301.00,301.00,301.00,301.00,301.47,301.47,301.47,301.47,301.47,301.47,301.47,301.47,301.47,301.47,301.47,301.47,301.93,301.93,301.93,301.93,301.93,302.40,302.40,302.87,302.87,302.87,302.87,303.33,302.87,303.33,304.27,304.73,306.13,309.87,311.27,310.80,310.80,310.80,310.80,309.87,309.87,309.87,309.87,310.80,310.80,310.80,310.80,310.80,310.80,313.13,315.47,318.73,318.73,322.93,327.13,333.67,343.93,343.93,357.00,362.13,375.67,375.67,384.07,387.33,390.60,390.60,393.40,398.53,373.33,373.33,363.53,357.00,347.20,347.20,337.40,327.60,322.47,322.47,318.73,318.73,318.73,318.73,316.40,316.40,316.40,318.73,318.73,318.73,318.73,318.73,318.73,318.73,318.73,318.73,322.47,322.47,322.47,322.47,322.47,322.47,322.47,322.47,318.73,318.73,318.73,318.73,318.73,318.73,318.73,318.73,318.73,318.73,318.73,318.73,318.73,318.73,318.73,318.73,318.73,318.73,318.73,318.73,318.73,318.73,318.73,318.73,318.73,318.73,318.73,322.47,322.47,322.47,322.47,322.47,322.47,322.47,322.47,322.47,322.47,322.47,322.47,322.47,322.47,322.47,322.47,322.47,322.47,327.60,327.60,327.60,327.60,327.60,327.60,327.60,327.60,327.60,327.60,327.60,327.60,327.60,327.60,327.60,327.60,327.60,327.60,327.60,327.60,327.60,327.60,327.60,327.60,327.60,327.60,337.40,337.40,337.40,337.40,337.40,337.40,337.40,337.40,337.40,337.40,337.40,337.40,337.40,337.40,337.40,337.40,337.40,337.40,337.40,337.40,337.40,337.40,337.40,337.40,347.20,347.20,347.20,347.20,347.20,347.20,347.20,347.20,347.20,347.20,347.20,347.20,347.20,347.20,347.20,347.20,347.20,347.20,337.40,337.40,347.20,347.20,337.40,347.20,347.20,337.40,337.40,337.40,337.40,337.40,337.40,337.40,337.40,337.40,337.40,337.40,337.40,337.40,337.40,347.20,347.20,347.20,347.20,347.20,347.20,347.20,347.20,347.20,357.00,357.00,357.00,357.00,357.00,357.00,357.00,357.00,357.00,347.20,347.20,347.20,348.60,347.20,347.20,347.20,347.20,347.20,347.20,347.20,347.20,347.20,347.67,348.13,349.07,350.47,352.80,354.67,355.60,355.13,354.20,353.73,352.80,351.87,351.40,350.47,350.00,349.07,345.80,338.33,332.73,326.67,320.13,310.80,302.40,302.40,302.40,302.40,302.40,302.40,302.40,302.40,302.40,302.40,302.40,302.40,302.40,302.40,302.40,302.40,302.40,302.40,302.40,302.40,302.40,302.40,302.40,302.40,302.87,302.87,302.87,302.87,302.87,302.87,302.87,302.87,302.87,302.87,302.87,302.87,302.87,302.87,302.87,302.87,302.87,302.87,303.33,303.33,303.33,303.33,303.33,303.33,303.33,303.33,303.33,303.33,303.33,303.33,303.33,303.33
311.27,309.87,309.40,308.93,307.07,306.60,306.13,305.67,304.27,302.87,301.93,301.00,300.53,301.00,301.00,301.00,301.00,301.00,301.00,301.00,301.00,301.00,301.00,301.00,301.00,301.00,301.00,301.00,301.00,301.00,301.00,301.00,301.00,301.00,301.00,301.00,301.00,301.00,301.00,301.00,301.00,301.00,301.00,301.00,301.00,301.00,301.00,301.00,301.00,301.00,301.00,301.00,301.00,301.00,301.00,301.00,301.00,301.00,301.00,301.00,301.00,301.00,301.00,301.00,301.00,301.00,301.00,301.00,301.00,301.00,301.00,301.00,301.00,301.00,301.00,301.00,301.00,301.00,301.00,301.00,301.00,301.00,301.00,301.00,301.00,301.47,301.47,301.47,301.47,301.47,301.47,301.47,301.47,301.47,301.47,301.47,301.93,301.93,301.93,301.93,302.40,302.40,302.40,302.87,302.87,302.87,302.87,303.33,302.87,303.80,303.33,303.80,304.27,306.60,308.47,310.80,310.80,310.80,310.80,310.80,309.87,309.87,309.87,309.87,310.80,310.80,310.80,310.80,310.80,310.80,313.13,315.47,318.73,318.73,323.87,330.40,336.93,343.93,343.93,357.00,369.13,375.67,375.67,384.07,387.33,390.60,390.60,393.40,398.53,373.33,373.33,363.53,357.00,347.20,347.20,337.40,327.60,322.47,322.47,322.47,318.73,318.73,318.73,318.73,318.73,318.73,318.73,318.73,318.73,318.73,318.73,322.47,322.47,322.47,322.47,322.47,322.47,322.47,322.47,322.47,322.47,322.47,322.47,318.73,318.73,318.73,318.73,318.73,318.73,318.73,318.73,318.73,318.73,318.73,318.73,318.73,318.73,318.73,318.73,318.73,318.73,318.73,318.73,318.73,318.73,318.73,318.73,318.73,318.73,318.73,322.47,322.47,322.47,322.47,322.47,322.47,322.47,322.47,322.47,322.47,322.47,322.47,322.47,322.47,322.47,322.47,322.47,322.47,322.47,322.47,327.60,327.60,327.60,327.60,327.60,327.60,327.60,327.60,327.60,327.60,327.60,327.60,327.60,327.60,327.60,327.60,327.60,327.60,327.60,327.60,327.60,327.60,327.60,327.60,327.60,327.60,327.60,327.60,327.60,327.60,327.60,327.60,337.40,337.40,337.40,337.40,337.40,337.40,337.40,337.40,337.40,337.40,337.40,337.40,337.40,337.40,337.40,337.40,337.40,347.20,347.20,347.20,347.20,347.20,347.20,347.20,347.20,347.20,347.20,347.20,347.20,347.20,347.20,347.20,347.20,347.20,347.20,347.20,347.20,347.20,337.40,337.40,337.40,337.40,337.40,337.40,337.40,337.40,337.40,337.40,337.40,337.40,337.40,337.40,337.40,337.40,337.40,347.20,347.20,347.20,347.20,347.20,347.20,357.00,357.00,357.00,357.00,357.00,357.00,357.00,357.00,357.00,357.00,357.00,357.00,357.00,357.00,350.47,349.53,347.67,347.67,347.20,347.20,347.20,347.20,347.20,347.20,347.20,347.20,348.60,350.47,351.40,353.73,355.60,356.07,355.13,354.67,353.27,352.33,351.40,350.93,350.00,349.53,348.60,347.67,347.20,347.67,337.87,326.67,322.47,309.87,302.87,302.40,302.40,302.40,302.40,302.40,302.40,302.40,302.40,302.40,302.40,302.40,302.40,302.40,302.40,302.40,302.40,302.40,302.40,302.40,302.40,302.40,302.40,302.40,302.40,302.40,302.40,302.40,302.40,302.40,302.87,302.87,302.87,302.87,302.87,302.87,302.87,302.87,302.87,302.87,302.87,302.87,302.87,303.33,303.33,303.33,303.33,303.33,303.33,303.33,303.33,303.33,303.33,303.33,303.33
308.47,307.53,307.07,305.67,304.27,304.27,301.47,301.47,301.00,300.53,301.00,301.00,301.00,301.00,301.00,301.00,301.00,301.00,301.00,301.00,301.00,301.00,301.00,301.00,301.00,301.00,301.00,301.00,301.00,301.00,301.00,301.00,301.00,301.00,301.00,301.00,301.00,301.00,301.00,301.00,301.00,301.00,301.00,301.00,301.00,301.00,301.00,301.00,301.00,301.00,301.00,301.00,301.00,301.00,301.00,301.00,301.00,301.00,301.00,301.00,301.00,301.00,301.00,301.00,301.00,301.00,301.00,301.00,301.00,301.00,301.00,301.00,301.00,301.00,301.00,301.00,301.00,301.00,301.00,301.00,301.00,301.00,301.00,301.00,301.00,301.47,301.47,301.47,301.47,301.47,301.47,301.47,301.47,301.47,301.47,301.47,301.93,301.93,301.93,301.93,302.40,302.40,302.40,302.87,302.87,302.87,302.87,303.33,303.33,303.33,303.33,303.80,303.33,305.20,306.60,309.87,310.80,310.80,310.80,309.87,309.87,309.87,309.87,309.87,309.87,309.87,309.87,309.87,310.80,310.80,310.80,315.47,318.73,318.73,323.87,330.40,336.93,343.93,343.93,357.00,369.13,375.67,375.67,384.07,387.33,390.60,390.60,393.40,398.53,373.33,373.33,363.53,357.00,337.40,337.40,337.40,327.60,322.47,322.47,322.47,318.73,318.73,318.73,318.73,318.73,318.73,318.73,318.73,318.73,318.73,318.73,322.47,322.47,322.47,322.47,322.47,322.47,322.47,322.47,322.47,322.47,322.47,322.47,318.73,318.73,318.73,318.73,318.73,318.73,318.73,318.73,318.73,318.73,318.73,318.73,318.73,318.73,318.73,318.73,318.73,318.73,318.73,318.73,318.73,318.73,318.73,318.73,318.73,318.73,318.73,322.47,322.47,322.47,322.47,322.47,322.47,322.47,322.47,322.47,322.47,322.47,322.47,322.47,322.47,322.47,322.47,322.47,322.47,322.47,322.47,322.47,327.60,327.60,327.60,327.60,327.60,327.60,327.60,327.60,327.60,327.60,327.60,327.60,327.60,327.60,327.60,327.60,327.60,327.60,327.60,327.60,327.60,327.60,327.60,327.60,327.60,327.60,327.60,327.60,327.60,327.60,327.60,327.60,327.60,327.60,337.40,337.40,337.40,337.40,337.40,337.40,337.40,337.40,337.40,337.40,337.40,337.40,337.40,337.40,337.40,337.40,337.40,347.20,347.20,347.20,347.20,347.20,347.20,347.20,347.20,347.20,347.20,347.20,347.20,347.20,347.20,347.20,347.20,347.20,337.40,337.40,337.40,337.40,337.40,337.40,337.40,337.40,337.40,337.40,337.40,327.60,327.60,327.60,327.60,327.60,337.40,337.40,337.40,337.40,347.20,347.20,347.20,347.20,357.00,357.00,357.00,357.00,357.00,357.00,357.00,357.00,357.00,357.00,357.00,357.00,357.00,357.00,352.80,349.07,348.13,347.67,347.20,347.20,347.20,347.20,347.20,347.20,347.20,348.13,349.07,350.00,352.33,354.67,356.53,356.07,355.13,354.67,352.80,351.87,350.93,350.00,349.53,348.60,348.13,347.20,347.20,347.20,346.73,338.80,331.33,325.73,314.07,303.33,302.40,302.40,302.40,302.40,302.40,302.40,302.40,302.40,302.40,302.40,302.40,302.40,302.40,302.40,302.40,302.40,302.40,302.40,302.40,302.40,302.40,302.40,302.40,302.40,302.40,302.40,302.40,302.40,302.40,302.40,302.87,302.87,302.87,302.87,302.87,302.87,302.87,302.87,302.87,302.87,302.87,302.87,302.87,302.87,302.87,302.87,302.87,302.87,302.87,302.87,302.87,302.87,302.87
306.13,302.87,301.47,301.47,301.00,301.00,301.00,301.00,301.00,301.00,301.00,301.00,301.00,301.00,301.00,301.00,301.00,301.00,301.00,301.00,301.00,300.53,301.00,301.00,301.00,301.00,301.00,301.00,301.00,301.00,301.00,301.00,301.00,301.00,301.00,301.00,301.00,301.00,301.00,301.00,301.00,301.00,301.00,301.00,301.00,301.00,301.00,301.00,301.00,301.00,301.00,301.00,301.00,301.00,301.00,301.00,301.00,301.00,301.00,301.00,301.00,301.00,301.00,301.00,301.00,301.00,301.00,301.00,301.00,301.00,301.00,301.00,301.00,301.00,301.00,301.00,301.00,301.00,301.00,301.00,301.00,301.00,301.00,301.00,301.00,301.00,301.47,301.47,301.47,301.47,301.47,301.47,301.47,301.47,301.47,301.47,301.93,301.93,301.93,301.93,302.40,302.87,302.87,302.87,302.87,303.33,303.33,303.33,303.33,303.33,303.33,303.33,303.33,305.20,306.60,308.00,308.00,310.80,310.80,309.87,309.87,309.87,309.87,309.87,309.87,309.87,309.87,309.87,310.80,310.80,310.80,315.47,318.73,318.73,323.87,330.40,336.93,350.47,350.47,357.00,369.13,375.67,375.67,384.07,387.33,390.60,390.60,393.40,398.53,373.33,373.33,363.53,357.00,337.40,337.40,337.40,327.60,322.47,322.47,322.47,318.73,318.73,318.73,318.73,318.73,318.73,318.73,318.73,318.73,318.73,318.73,322.47,322.47,322.47,322.47,322.47,322.47,322.47,322.47,322.47,322.47,322.47,322.47,322.47,322.47,322.47,322.47,322.47,318.73,318.73,318.73,318.73,318.73,318.73,318.73,322.47,322.47,322.47,322.47,322.47,318.73,318.73,318.73,318.73,318.73,318.73,318.73,318.73,318.73,318.73,322.47,322.47,322.47,322.47,322.47,322.47,322.47,322.47,322.47,322.47,322.47,322.47,322.47,322.47,322.47,322.47,322.47,322.47,322.47,322.47,322.47,327.60,327.60,327.60,327.60,327.60,327.60,327.60,327.60,327.60,327.60,327.60,327.60,327.60,327.60,327.60,327.60,327.60,327.60,327.60,327.60,327.60,327.60,327.60,327.60,327.60,327.60,327.60,327.60,327.60,327.60,327.60,327.60,327.60,327.60,337.40,337.40,337.40,337.40,337.40,337.40,337.40,337.40,337.40,337.40,337.40,337.40,337.40,337.40,337.40,337.40,337.40,347.20,347.20,347.20,347.20,347.20,347.20,347.20,347.20,347.20,347.20,347.20,347.20,347.20,347.20,347.20,347.20,347.20,337.40,337.40,337.40,337.40,337.40,337.40,337.40,337.40,337.40,337.40,337.40,327.60,327.60,327.60,327.60,327.60,337.40,337.40,337.40,337.40,347.20,347.20,347.20,347.20,357.00,357.00,357.00,357.00,357.00,357.00,357.00,357.00,357.00,357.00,357.00,357.00,357.00,357.00,347.20,347.20,347.20,347.20,347.20,347.20,347.20,347.20,347.20,347.20,347.20,347.20,347.20,347.20,353.27,356.07,357.00,356.53,355.60,354.67,351.87,350.47,350.00,349.53,348.60,348.13,347.20,347.20,347.20,347.20,346.73,346.73,344.40,332.73,327.60,318.73,307.53,305.20,305.67,302.40,302.40,302.40,302.40,302.40,302.40,302.40,302.40,302.40,302.40,302.40,302.40,302.40,302.40,302.40,302.40,302.40,302.40,302.40,302.40,302.40,302.40,302.40,302.40,302.40,302.40,302.40,302.87,302.87,302.87,302.87,302.87,302.87,302.87,302.87,302.87,302.87,302.87,302.87,302.87,302.87,302.87,302.87,302.87,302.87,302.87,302.87,302.87,302.87,302.87
301.93,301.00,301.00,301.00,301.00,301.00,301.00,301.00,301.00,301.00,301.00,301.00,301.00,301.00,301.00,301.00,301.00,301.00,301.00,301.00,301.00,301.00,301.00,301.00,301.00,301.00,301.00,301.00,301.00,301.00,301.00,301.00,301.00,301.00,301.00,301.00,301.00,301.00,301.00,301.00,301.00,301.00,301.00,301.00,301.00,301.00,301.00,301.00,301.00,301.00,301.00,301.00,301.00,301.00,301.00,301.00,301.00,301.00,301.00,301.00,301.00,301.00,301.00,301.00,301.00,301.00,301.00,301.00,301.00,301.00,301.00,301.00,301.00,301.00,301.00,301.00,301.00,301.00,301.00,301.00,301.00,301.00,301.00,301.00,301.00,301.00,301.47,301.47,301.47,301.47,301.47,301.47,301.47,301.47,301.47,301.93,301.93,301.93,301.93,302.40,302.87,302.87,302.87,302.87,303.33,303.33,303.33,303.33,303.33,303.33,303.33,303.33,303.33,303.80,303.80,303.80,303.80,303.80,308.93,309.87,309.87,309.87,309.87,310.33,309.87,309.87,309.87,310.33,310.80,311.27,312.67,315.47,318.27,320.60,327.13,336.00,350.47,350.47,350.47,362.13,369.13,375.67,375.67,384.07,387.33,390.60,390.60,393.40,398.53,373.33,373.33,363.53,357.00,337.40,337.40,337.40,327.60,322.47,322.47,322.47,318.73,318.73,318.73,318.73,318.73,318.73,318.73,318.73,318.73,322.47,322.47,322.47,322.47,322.47,322.47,322.47,322.47,322.47,322.47,322.47,322.47,322.47,322.47,322.47,322.47,322.47,322.47,322.47,322.47,322.47,318.73,318.73,318.73,322.47,322.47,322.47,322.47,322.47,322.47,322.47,322.47,322.47,322.47,318.73,318.73,318.73,318.73,318.73,318.73,318.73,322.47,322.47,322.47,322.47,322.47,322.47,322.47,322.47,322.47,322.47,322.47,322.47,322.47,322.47,322.47,322.47,322.47,322.47,322.47,322.47,322.47,322.47,322.47,327.60,327.60,327.60,327.60,327.60,327.60,327.60,327.60,327.60,327.60,327.60,327.60,322.47,322.47,322.47,322.47,322.47,327.60,327.60,327.60,327.60,327.60,327.60,327.60,327.60,327.60,327.60,327.60,327.60,327.60,327.60,327.60,327.60,327.60,327.60,327.60,327.60,327.60,337.40,337.40,337.40,337.40,337.40,337.40,337.40,337.40,337.40,337.40,337.40,337.40,337.40,337.40,337.40,337.40,337.40,337.40,337.40,337.40,337.40,337.40,347.20,347.20,347.20,347.20,347.20,347.20,337.40,337.40,337.40,337.40,337.40,337.40,337.40,337.40,337.40,337.40,337.40,337.40,337.40,337.40,327.60,327.60,337.40,337.40,337.40,337.40,347.20,347.20,347.20,347.20,347.20,347.20,357.00,357.00,357.00,357.00,357.00,357.00,357.00,357.00,357.00,357.00,357.00,357.00,357.00,347.20,347.20,347.20,347.20,347.20,347.20,347.20,347.20,347.20,347.20,357.00,357.00,357.00,357.00,357.00,357.00,357.00,357.00,353.73,349.53,349.53,349.53,348.60,348.13,347.67,347.20,346.73,346.73,346.73,346.73,346.73,346.27,344.40,334.13,332.73,328.07,325.27,321.53,315.93,305.20,305.67,302.40,302.40,302.40,302.40,302.40,302.40,302.40,302.40,302.40,302.40,302.40,302.40,302.40,302.40,302.40,302.40,302.40,302.40,302.40,302.40,302.40,302.40,302.40,302.40,302.40,302.40,302.87,302.87,302.87,302.87,302.87,302.87,302.87,302.87,302.87,302.87,302.87,302.87,302.87,302.87,302.87,302.87,302.87,302.87,302.87,302.87,302.87
301.00,301.00,301.00,301.00,301.00,301.00,301.00,301.00,301.00,301.00,301.00,301.00,301.00,301.00,301.00,301.00,301.00,301.00,301.00,301.00,301.00,301.00,301.00,301.00,301.00,301.00,301.00,301.00,301.00,301.00,301.00,301.00,301.00,301.00,301.00,301.00,301.00,301.00,301.00,301.00,301.00,301.00,301.00,301.00,301.00,301.00,301.00,301.00,301.00,301.00,301.00,301.00,301.00,301.00,301.00,301.00,301.00,301.00,301.00,301.00,301.00,301.00,301.00,301.00,301.00,301.00,301.00,301.00,301.00,301.00,301.00,301.00,301.00,301.00,301.00,301.00,301.00,301.00,301.00,301.00,301.00,301.00,301.00,301.00,301.00,301.00,301.47,301.00,301.47,301.47,301.47,301.47,301.47,301.93,301.93,302.40,302.40,302.87,302.87,302.87,302.87,302.87,302.87,303.33,303.33,303.33,303.33,303.33,303.33,303.33,303.33,303.33,303.33,303.80,303.80,303.80,303.80,303.80,307.07,308.47,309.87,309.87,309.87,309.87,309.87,310.33,310.33,309.87,310.80,311.73,313.13,315.47,320.60,328.53,339.73,344.40,357.00,357.00,357.00,362.13,369.13,380.80,380.80,384.07,387.33,390.60,390.60,393.40,398.53,373.33,373.33,363.53,357.00,337.40,337.40,337.40,327.60,322.47,322.47,322.47,318.73,318.73,318.73,318.73,318.73,318.73,318.73,318.73,318.73,322.47,322.47,322.47,322.47,322.47,322.47,322.47,322.47,322.47,322.47,322.47,322.47,322.47,322.47,322.47,322.47,322.47,322.47,322.47,322.47,322.47,318.73,318.73,318.73,322.47,322.47,322.47,322.47,322.47,322.47,322.47,322.47,322.47,322.47,318.73,318.73,318.73,318.73,318.73,318.73,318.73,322.47,322.47,322.47,322.47,322.47,322.47,322.47,322.47,322.47,322.47,322.47,322.47,322.47,322.47,322.47,322.47,322.47,322.47,322.47,322.47,322.47,322.47,322.47,322.47,327.60,327.60,327.60,327.60,327.60,327.60,327.60,327.60,322.47,322.47,322.47,322.47,322.47,322.47,322.47,322.47,327.60,327.60,327.60,327.60,327.60,327.60,327.60,327.60,327.60,327.60,327.60,327.60,327.60,327.60,327.60,327.60,327.60,327.60,327.60,327.60,327.60,327.60,327.60,327.60,337.40,337.40,337.40,337.40,337.40,337.40,337.40,337.40,337.40,337.40,337.40,337.40,337.40,337.40,337.40,337.40,337.40,337.40,337.40,337.40,337.40,347.20,347.20,337.40,337.40,337.40,337.40,337.40,337.40,337.40,337.40,337.40,337.40,337.40,337.40,337.40,337.40,337.40,337.40,327.60,327.60,327.60,337.40,337.40,337.40,347.20,347.20,347.20,347.20,347.20,347.20,357.00,357.00,357.00,357.00,357.00,357.00,357.00,357.00,357.00,357.00,357.00,357.00,357.00,347.20,347.20,347.20,347.20,347.20,347.20,347.20,347.20,347.20,347.20,357.00,357.00,357.00,357.00,357.00,357.00,357.00,357.00,347.20,347.20,349.07,348.60,347.67,347.67,347.20,347.20,346.73,347.20,346.73,346.73,346.27,346.27,346.73,344.40,342.53,341.13,339.27,336.47,331.33,327.60,326.67,316.40,304.73,304.73,305.20,302.40,303.33,302.40,302.40,302.40,302.40,302.40,302.40,302.40,302.40,302.40,302.40,302.40,302.40,302.40,302.40,302.40,302.40,302.40,302.40,302.40,302.40,302.40,302.87,302.87,302.87,302.87,302.87,302.87,302.87,302.87,302.87,302.87,302.87,302.87,302.87,302.87,302.87,302.87,302.87,302.87,302.87,302.87
301.00,301.00,301.00,301.00,301.00,301.00,301.00,301.00,301.00,301.00,301.00,301.00,301.00,301.00,301.00,301.00,301.00,301.00,301.00,301.00,301.00,301.00,301.00,301.00,301.00,301.00,301.00,301.00,301.00,301.00,301.00,301.00,301.00,301.00,301.00,301.00,301.00,301.00,301.00,301.00,301.00,301.00,301.00,301.00,301.00,301.00,301.00,301.00,301.00,301.00,301.00,301.00,301.00,301.00,301.00,301.00,301.00,301.00,301.00,301.00,301.00,301.00,301.00,301.00,301.00,301.00,301.00,301.00,301.00,301.00,301.00,301.00,301.00,301.00,301.00,301.00,301.00,301.00,301.00,301.00,301.00,301.00,301.00,301.00,301.00,301.00,301.47,301.47,301.47,301.47,301.47,301.47,301.93,301.93,302.40,302.40,302.40,302.87,302.87,302.87,302.87,302.87,302.87,303.33,303.33,303.33,303.33,303.33,303.33,303.33,303.33,303.33,303.33,303.80,303.80,303.80,303.80,303.80,303.80,306.13,307.53,308.93,310.33,309.87,309.87,309.87,310.33,310.33,310.80,311.73,316.40,323.40,330.40,337.87,344.40,347.20,357.00,357.00,357.00,362.13,369.13,380.80,380.80,380.80,387.33,390.60,390.60,393.40,398.53,373.33,373.33,363.53,357.00,337.40,337.40,337.40,327.60,322.47,322.47,322.47,318.73,318.73,318.73,318.73,318.73,318.73,318.73,318.73,318.73,322.47,322.47,322.47,322.47,322.47,322.47,322.47,322.47,322.47,322.47,322.47,322.47,322.47,322.47,322.47,322.47,322.47,322.47,322.47,322.47,322.47,322.47,322.47,322.47,322.47,322.47,322.47,322.47,322.47,322.47,322.47,322.47,322.47,322.47,322.47,322.47,322.47,322.47,322.47,322.47,322.47,322.47,322.47,322.47,322.47,322.47,322.47,322.47,322.47,322.47,322.47,327.60,327.60,322.47,322.47,322.47,322.47,322.47,322.47,322.47,322.47,322.47,322.47,322.47,322.47,327.60,327.60,327.60,327.60,327.60,327.60,327.60,327.60,322.47,322.47,322.47,322.47,322.47,322.47,322.47,322.47,327.60,327.60,327.60,327.60,327.60,327.60,327.60,327.60,327.60,327.60,327.60,327.60,327.60,327.60,327.60,327.60,327.60,327.60,327.60,327.60,327.60,327.60,327.60,327.60,327.60,337.40,337.40,337.40,337.40,337.40,337.40,337.40,337.40,337.40,337.40,337.40,337.40,337.40,337.40,337.40,337.40,337.40,337.40,337.40,337.40,337.40,337.40,337.40,337.40,337.40,337.40,337.40,337.40,337.40,337.40,337.40,337.40,337.40,337.40,337.40,327.60,327.60,327.60,327.60,327.60,327.60,337.40,337.40,337.40,337.40,347.20,347.20,347.20,347.20,347.20,357.00,357.00,357.00,357.00,357.00,357.00,357.00,357.00,357.00,357.00,357.00,357.00,347.20,347.20,347.20,347.20,347.20,347.20,347.20,347.20,347.20,347.20,347.20,347.20,347.20,347.20,357.00,357.00,357.00,357.00,357.00,347.20,347.20,348.13,347.67,347.20,347.20,347.20,347.20,347.20,346.73,346.73,346.27,345.80,345.80,346.27,348.60,350.47,352.33,352.80,351.87,346.27,342.53,337.87,330.87,326.67,324.80,323.40,315.93,315.00,304.73,302.40,302.87,302.40,302.40,302.40,302.40,302.40,302.40,302.40,302.40,302.40,302.40,302.40,302.40,302.40,302.40,302.40,302.40,302.40,302.40,302.87,302.40,302.87,302.87,302.87,302.87,302.87,302.87,302.87,302.87,302.87,302.87,302.87,302.87,302.87,302.87,302.87,302.87,302.87,302.87
