338.59,338.59,338.59,338.59,338.59,338.59,338.59,338.59,338.59,338.59,338.59,338.59,338.59,338.59,338.59,338.59,338.59,338.59,338.59,338.59,338.59,338.59,338.59,338.59,338.59,338.59,338.59,338.59,338.59,338.59,338.59,338.59,338.59,338.59,338.59,338.59,338.59,338.59,338.59,349.41,349.41,349.41,349.41,338.59,338.59,338.59,338.59,338.59,349.41,349.41,349.41,349.41,349.41,349.41,349.41,349.41,349.41,349.41,349.41,349.41,349.41,349.41,349.41,349.41,349.41,349.41,349.41,349.41,349.41,349.41,349.41,349.41,349.41,349.41,349.41,349.41,338.59,345.80,347.16,347.61,347.61,348.96,349.41,350.31,351.67,352.57,353.92,354.82,355.27,347.61,337.69,331.82,320.55,308.37,306.12,306.12,306.12,306.12,307.02,306.12,306.12,306.12,306.12,306.12,306.12,306.12,306.12,306.12,306.12,306.12,306.12,306.12,306.12,306.57,306.57,306.57,306.57,306.57,306.57,306.57,306.57,306.57,306.57,306.57,306.57,306.57,306.57,306.57,306.57,306.57,306.57,306.57,307.02,307.02,307.02,307.02,307.02,307.02,307.02,307.02,307.02,307.02,307.02,307.02,307.02,307.02,307.02,307.02,307.02,307.02,307.02,307.02,307.02,307.02,307.02,307.02,307.02,307.02,307.02,307.02,307.02,307.02,307.02,307.02,307.02,307.02,307.02,307.02,307.02,307.02,307.02,307.02,307.02,307.02,307.02,307.02,307.02,307.02,307.02,307.02,307.02,307.02,307.02,307.02,307.02,307.02,307.02,307.02,307.02,307.02,307.02,307.02,307.02,307.02,307.02,307.02,307.02,307.02,307.02,307.02,307.02,307.02,307.02,307.02,307.02,306.57,306.57,306.57,306.57,306.57,306.57,306.57,306.57,306.57,306.57,306.57,306.57,306.57,306.57,306.57,306.57,306.57,306.57,306.57,306.57,306.57,306.57,306.57,306.57,306.57,306.57,306.57,306.57,306.57,306.57,306.57,306.57,384.14,384.14,384.14,384.14,376.02,376.92,384.14,384.14,384.14,384.14,384.14,384.14,384.14,384.14,384.14,384.14,384.14,384.14,373.76,384.14,384.14,373.76,373.76,373.76,373.76,373.76,373.76,373.76,373.76,373.76,373.76,384.14,384.14,384.14,384.14,384.14,384.14,384.14,384.14,384.14,384.14,398.12,398.12,398.12,398.12,398.12,398.12,398.12,398.12,398.12,398.12,398.12,398.12,398.12,398.12,398.12,398.12,398.12,398.12,398.12,398.12,398.12,398.12,398.12,398.12,398.12,398.12,398.12,398.12,398.12,398.12,398.12,398.12,398.12,398.12,398.12,398.12,398.12,398.12,398.12,398.12,398.12,398.12,398.12,398.12,398.12,398.12,398.12,398.12,398.12,398.12,398.12,398.12,398.12,398.12,398.12,398.12,398.12,398.12,398.12,398.12,398.12,398.12,398.12,398.12,398.12,398.12,398.12,398.12,398.12,398.12,398.12,397.67,397.67,397.67,397.67,397.67,397.67,397.67,397.67,397.67,397.67,397.67,397.67,397.67,397.67,397.67,397.67,397.67,397.67,397.67,397.67,397.67,397.67,397.67,397.67,397.67,394.06,394.06,394.06,394.06,394.06,391.80,391.80,391.80,391.80,390.00,390.00,390.00,390.00,390.00,390.00,391.80,391.80,391.80,391.80,391.80,391.80,391.80,391.80,391.80,391.80,391.80,391.80,391.80,391.80,391.80,390.00,388.65,388.65,385.49,382.33,382.33,371.51,365.20,359.78,353.47,347.16,340.84,336.33,334.53,326.86,326.86,323.71,321.90,321.90,318.75,315.14,315.14
338.59,338.59,338.59,338.59,338.59,338.59,338.59,338.59,338.59,338.59,338.59,338.59,338.59,338.59,338.59,338.59,338.59,338.59,338.59,338.59,338.59,338.59,338.59,338.59,338.59,338.59,338.59,338.59,338.59,338.59,338.59,338.59,338.59,338.59,338.59,338.59,338.59,338.59,338.59,338.59,338.59,349.41,349.41,338.59,338.59,338.59,338.59,338.59,338.59,349.41,349.41,349.41,349.41,349.41,349.41,349.41,349.41,349.41,349.41,349.41,349.41,349.41,349.41,349.41,349.41,349.41,349.41,349.41,349.41,349.41,349.41,349.41,349.41,349.41,349.41,349.41,349.41,348.06,348.06,348.06,348.96,349.86,349.86,351.67,352.12,353.47,354.82,355.73,355.73,355.73,352.12,338.14,332.27,326.41,316.04,307.92,307.02,306.12,306.12,306.12,306.12,306.57,306.57,306.12,306.12,306.12,306.12,306.12,306.12,306.12,306.12,306.12,306.12,306.12,306.57,306.57,306.57,306.57,306.57,306.57,306.57,306.57,306.57,306.57,306.57,306.57,306.57,306.57,306.57,306.57,306.57,306.57,306.57,306.57,307.02,307.02,307.02,307.02,307.02,307.02,307.02,307.02,307.02,307.02,307.02,307.02,307.02,307.02,307.02,307.02,307.02,307.02,307.02,307.02,307.02,307.02,307.02,307.02,307.02,307.02,307.02,307.02,307.02,307.02,307.02,307.02,307.02,307.02,307.02,307.02,307.02,307.02,307.02,307.02,307.02,307.02,307.02,307.02,307.02,307.02,307.02,307.02,307.02,307.02,307.02,307.02,307.02,307.02,307.02,307.02,307.02,307.02,307.02,307.02,307.02,307.02,307.02,307.02,307.02,307.02,307.02,306.57,306.57,306.57,306.57,306.57,306.57,306.57,306.57,306.57,306.57,306.57,306.57,306.57,306.57,306.57,306.57,306.12,306.12,306.57,306.57,306.57,306.57,306.57,306.57,306.57,306.57,306.57,306.57,306.57,306.57,306.57,306.57,306.57,306.57,306.57,306.57,384.14,384.14,384.14,384.14,382.33,381.88,384.14,384.14,384.14,384.14,384.14,384.14,384.14,384.14,384.14,384.14,384.14,384.14,373.76,384.14,384.14,373.76,373.76,373.76,373.76,373.76,373.76,373.76,373.76,373.76,373.76,384.14,384.14,384.14,384.14,384.14,384.14,384.14,384.14,384.14,384.14,398.12,398.12,398.12,398.12,398.12,398.12,398.12,398.12,398.12,398.12,398.12,398.12,398.12,398.12,398.12,398.12,398.12,398.12,398.12,398.12,398.12,398.12,398.12,398.12,398.12,398.12,398.12,398.12,398.12,398.12,398.12,398.12,398.12,398.12,398.12,398.12,398.12,398.12,398.12,398.12,398.12,398.12,398.12,398.12,398.12,398.12,398.12,398.12,398.12,398.12,398.12,398.12,398.12,398.12,398.12,398.12,398.12,398.12,398.12,398.12,398.12,398.12,398.12,398.12,398.12,398.12,398.12,398.12,398.12,398.12,398.12,398.12,398.12,398.12,398.12,397.67,397.67,397.67,397.67,397.67,397.67,397.67,397.67,397.67,397.67,397.67,397.67,397.67,397.67,397.67,397.67,397.67,397.67,397.67,397.67,397.67,394.06,394.06,394.06,394.06,394.06,391.80,391.80,391.80,391.80,390.00,390.00,390.00,390.00,390.00,390.00,391.80,391.80,391.80,391.80,391.80,391.80,391.80,391.80,391.80,394.06,394.06,391.80,391.80,391.80,391.80,390.00,388.65,388.65,385.49,382.33,382.33,377.82,365.20,359.78,359.78,347.16,340.84,340.84,334.53,326.86,326.86,323.71,321.90,321.90,318.75,315.14,315.14
338.59,338.59,338.59,338.59,338.59,338.59,338.59,338.59,338.59,338.59,338.59,338.59,338.59,338.59,338.59,338.59,338.59,338.59,338.59,338.59,338.59,338.59,338.59,338.59,338.59,338.59,338.59,338.59,338.59,338.59,338.59,338.59,338.59,338.59,338.59,338.59,338.59,338.59,338.59,338.59,338.59,338.59,338.59,338.59,338.59,338.59,338.59,338.59,338.59,349.41,349.41,349.41,349.41,349.41,349.41,349.41,349.41,349.41,349.41,349.41,349.41,349.41,349.41,349.41,349.41,349.41,349.41,349.41,349.41,349.41,349.41,349.41,349.41,349.41,349.41,349.41,349.41,348.96,348.51,348.51,349.41,349.41,350.31,352.57,352.57,353.47,354.82,355.73,356.18,355.73,354.37,350.31,341.75,333.18,329.12,321.90,314.69,310.18,306.12,307.02,306.12,306.12,306.12,306.12,306.12,306.12,306.12,306.12,306.12,306.12,306.12,306.12,306.12,306.12,306.12,306.12,306.12,306.12,306.12,306.12,306.12,306.57,306.57,306.57,306.57,306.57,306.57,306.57,306.57,306.57,306.57,306.57,306.57,306.57,306.57,306.57,307.02,307.02,307.02,307.02,307.02,307.02,307.02,307.02,307.02,307.02,307.02,307.02,307.02,307.02,307.02,307.02,307.02,307.02,307.02,307.02,307.02,307.02,307.02,307.02,307.02,307.02,307.02,307.02,307.02,307.02,307.02,307.02,307.02,307.02,307.02,307.02,307.02,307.02,307.02,307.02,307.02,307.02,307.02,307.02,307.02,307.02,307.02,307.02,307.02,307.02,307.02,307.02,307.02,307.02,307.02,307.02,307.02,307.02,307.02,307.02,307.02,307.02,306.57,306.57,306.57,306.57,306.57,306.57,306.57,306.57,306.57,306.57,306.57,306.57,306.57,306.12,306.12,306.12,306.12,306.12,306.12,306.12,306.12,306.12,306.12,306.12,306.57,306.57,306.57,306.57,306.57,306.57,306.57,306.57,306.57,306.57,306.57,306.57,306.57,306.57,306.57,384.14,384.14,384.14,384.14,383.24,382.78,383.24,384.14,384.14,384.14,384.14,384.14,384.14,384.14,384.14,384.14,384.14,384.14,373.76,373.76,373.76,373.76,373.76,373.76,373.76,373.76,373.76,373.76,373.76,373.76,373.76,373.76,373.76,384.14,384.14,384.14,384.14,384.14,384.14,384.14,384.14,398.12,398.12,398.12,398.12,398.12,398.12,398.12,398.12,398.12,398.12,398.12,398.12,398.12,398.12,398.12,398.12,398.12,398.12,398.12,398.12,398.12,398.12,398.12,398.12,398.12,398.12,398.12,398.12,398.12,398.12,398.12,398.12,398.12,398.12,398.12,398.12,398.12,398.12,398.12,398.12,398.12,398.12,398.12,398.12,398.12,398.12,398.12,398.12,398.12,398.12,398.12,398.12,398.12,398.12,398.12,398.12,398.12,398.12,398.12,398.12,398.12,398.12,398.12,398.12,398.12,398.12,398.12,398.12,398.12,398.12,398.12,398.12,398.12,398.12,398.12,397.67,397.67,397.67,397.67,397.67,397.67,397.67,397.67,397.67,397.67,397.67,397.67,397.67,397.67,397.67,397.67,397.67,397.67,397.67,397.67,394.06,394.06,394.06,394.06,394.06,394.06,391.80,391.80,390.00,390.00,390.00,390.00,390.00,390.00,390.00,390.00,391.80,391.80,391.80,391.80,391.80,391.80,391.80,391.80,391.80,394.06,394.06,391.80,391.80,391.80,391.80,390.00,388.65,388.65,385.49,382.33,382.33,377.82,365.20,359.78,359.78,347.16,340.84,340.84,334.53,326.86,326.86,323.71,321.90,321.90,318.75,315.14,315.14
338.59,338.59,338.59,338.59,338.59,338.59,338.59,338.59,338.59,338.59,338.59,338.59,338.59,338.59,338.59,338.59,338.59,338.59,338.59,338.59,338.59,338.59,338.59,338.59,338.59,338.59,338.59,338.59,338.59,338.59,338.59,338.59,338.59,338.59,338.59,338.59,338.59,338.59,338.59,338.59,338.59,338.59,338.59,338.59,338.59,338.59,338.59,338.59,338.59,349.41,349.41,349.41,349.41,349.41,349.41,349.41,349.41,349.41,349.41,349.41,349.41,349.41,349.41,349.41,349.41,349.41,349.41,349.41,349.41,349.41,349.41,349.41,349.41,349.41,349.41,349.41,349.41,349.41,349.41,349.41,349.41,349.86,350.76,352.12,352.57,353.92,355.27,356.18,356.63,355.73,354.82,352.57,348.51,341.75,334.53,330.02,325.51,322.35,316.04,308.82,306.12,307.02,306.12,307.02,306.12,306.12,306.12,306.12,306.12,306.12,306.12,306.12,306.12,306.12,306.12,306.12,306.12,306.12,306.12,306.12,306.12,306.57,306.57,306.57,306.57,306.57,306.57,306.57,306.57,306.57,306.57,306.57,306.57,306.57,306.57,306.57,307.02,307.02,307.02,307.02,307.02,307.02,307.02,307.02,307.02,307.02,307.02,307.02,307.02,307.02,307.02,307.02,307.02,307.02,307.02,307.02,307.02,307.02,307.02,307.02,307.02,307.02,307.02,307.02,307.02,307.02,307.02,307.02,307.02,307.02,307.02,307.02,307.02,307.02,307.02,307.02,307.02,307.02,307.02,307.02,307.02,307.02,307.02,307.02,307.02,307.02,307.02,307.02,307.02,307.02,307.02,307.02,307.02,307.02,307.02,307.02,307.02,307.02,306.57,306.57,306.57,306.57,306.57,306.57,306.57,306.57,306.57,306.57,306.57,306.57,306.12,306.12,306.12,306.12,306.12,306.12,306.12,306.12,306.12,306.12,306.12,306.12,306.12,306.57,306.57,306.57,306.57,306.57,306.57,306.57,306.57,306.57,306.57,306.57,306.57,306.57,306.57,398.12,398.12,384.14,384.14,384.14,384.14,384.14,384.14,384.14,384.14,384.14,384.14,384.14,384.14,384.14,384.14,384.14,384.14,373.76,373.76,373.76,373.76,373.76,373.76,373.76,373.76,373.76,373.76,373.76,373.76,373.76,373.76,373.76,384.14,384.14,384.14,384.14,384.14,384.14,384.14,384.14,398.12,398.12,398.12,398.12,398.12,398.12,398.12,398.12,398.12,398.12,398.12,398.12,398.12,398.12,398.12,398.12,398.12,398.12,398.12,398.12,398.12,398.12,398.12,398.12,398.12,398.12,398.12,398.12,398.12,398.12,398.12,398.12,398.12,398.12,398.12,398.12,398.12,398.12,398.12,398.12,398.12,398.12,398.12,398.12,398.12,398.12,398.12,398.12,398.12,398.12,398.12,398.12,398.12,397.67,397.67,397.67,397.67,397.67,397.67,397.67,398.12,398.12,398.12,398.12,398.12,398.12,398.12,398.12,398.12,398.12,398.12,398.12,398.12,398.12,398.12,397.67,397.67,397.67,397.67,397.67,397.67,397.67,397.67,397.67,397.67,397.67,397.67,397.67,397.67,397.67,397.67,397.67,397.67,397.67,397.67,394.06,394.06,394.06,394.06,391.80,391.80,391.80,391.80,390.00,390.00,390.00,390.00,390.00,390.00,390.00,390.00,390.00,390.00,391.80,391.80,391.80,391.80,391.80,391.80,391.80,394.06,394.06,394.06,391.80,391.80,391.80,390.00,388.65,388.65,385.49,382.33,382.33,377.82,365.20,359.78,359.78,347.16,340.84,340.84,334.53,326.86,326.86,323.71,321.90,321.90,318.75,316.49,316.49
338.59,338.59,338.59,338.59,338.59,338.59,338.59,338.59,338.59,338.59,338.59,338.59,338.59,338.59,338.59,338.59,338.59,338.59,338.59,338.59,338.59,338.59,338.59,338.59,338.59,338.59,338.59,338.59,338.59,338.59,338.59,338.59,338.59,338.59,338.59,338.59,338.59,338.59,338.59,338.59,338.59,338.59,338.59,338.59,338.59,338.59,338.59,338.59,338.59,349.41,349.41,349.41,349.41,349.41,349.41,349.41,349.41,349.41,349.41,349.41,349.41,349.41,349.41,349.41,349.41,349.41,349.41,349.41,349.41,349.41,349.41,349.41,349.41,349.41,349.41,349.41,349.41,349.41,349.41,349.41,349.41,350.31,350.76,352.12,352.57,353.92,356.18,356.63,356.63,355.73,354.37,351.22,346.71,341.75,340.39,340.39,334.53,328.67,323.25,319.20,308.82,306.57,306.57,306.12,306.12,306.12,306.12,306.12,306.12,306.12,306.12,306.12,306.12,306.12,306.12,306.12,306.12,306.12,306.12,306.12,306.12,306.57,306.57,306.57,306.57,306.57,306.57,306.57,306.57,306.57,306.57,306.57,306.57,306.57,306.57,306.57,306.57,306.57,306.57,307.02,307.02,307.02,307.02,307.02,307.02,307.02,307.02,307.02,307.02,307.02,307.02,307.02,307.02,307.02,307.02,307.02,307.02,307.02,307.02,307.02,307.02,307.02,307.02,307.02,307.02,307.02,307.02,307.02,307.02,307.02,307.02,307.02,307.02,307.02,307.02,307.02,307.02,307.02,307.02,307.02,307.02,307.02,307.02,307.02,307.02,307.02,307.02,307.02,307.02,307.02,307.02,307.02,307.02,307.02,307.02,307.02,306.57,306.57,306.57,306.57,306.57,306.57,306.57,306.57,306.57,306.57,306.57,306.57,306.57,306.57,306.12,306.12,306.12,306.12,306.12,306.12,306.12,306.12,306.12,306.12,306.12,306.12,306.12,306.57,306.57,306.57,306.57,306.57,306.57,320.10,322.35,306.57,306.57,398.12,398.12,398.12,398.12,398.12,398.12,384.14,384.14,384.14,384.14,384.14,384.14,384.14,384.14,384.14,384.14,384.14,384.14,384.14,384.14,384.14,384.14,373.76,373.76,373.76,373.76,373.76,373.76,373.76,373.76,373.76,373.76,373.76,373.76,373.76,373.76,373.76,384.14,384.14,384.14,384.14,384.14,384.14,384.14,384.14,384.14,384.14,384.14,398.12,398.12,398.12,398.12,398.12,398.12,398.12,398.12,398.12,398.12,398.12,398.12,398.12,398.12,398.12,398.12,398.12,398.12,398.12,398.12,384.14,384.14,384.14,384.14,384.14,384.14,398.12,398.12,398.12,398.12,398.12,398.12,398.12,398.12,398.12,398.12,398.12,398.12,398.12,398.12,398.12,398.12,398.12,398.12,398.12,398.12,398.12,398.12,398.12,398.12,397.67,397.67,397.67,397.67,397.67,397.67,397.67,398.12,398.12,398.12,398.12,398.12,398.12,398.12,398.12,398.12,398.12,398.12,398.12,398.12,398.12,398.12,398.12,398.12,397.67,397.67,397.67,397.67,397.67,397.67,397.67,397.67,397.67,397.67,397.67,397.67,397.67,397.67,397.67,397.67,397.67,397.67,394.06,394.06,394.06,394.06,391.80,391.80,391.80,391.80,391.80,391.80,390.00,390.00,390.00,390.00,390.00,390.00,390.00,390.00,391.80,391.80,391.80,391.80,394.06,394.06,394.06,394.06,391.80,391.80,391.80,391.80,391.80,390.00,388.65,388.65,385.49,382.33,382.33,377.82,371.51,359.78,359.78,347.16,340.84,340.84,334.53,326.86,326.86,323.71,321.90,321.90,318.75,315.14,315.14
338.59,338.59,338.59,338.59,338.59,338.59,338.59,338.59,338.59,338.59,338.59,338.59,338.59,338.59,338.59,338.59,338.59,338.59,338.59,338.59,338.59,338.59,338.59,338.59,338.59,338.59,338.59,338.59,338.59,338.59,338.59,338.59,338.59,338.59,338.59,338.59,338.59,338.59,338.59,338.59,338.59,338.59,338.59,338.59,338.59,338.59,338.59,338.59,338.59,349.41,349.41,349.41,349.41,349.41,349.41,349.41,359.78,359.78,359.78,359.78,359.78,359.78,349.41,349.41,349.41,349.41,349.41,349.41,349.41,349.41,349.41,349.41,349.41,349.41,349.41,349.41,349.41,348.96,349.41,349.41,349.41,349.86,350.76,352.12,352.57,354.82,357.08,357.53,357.08,355.73,353.92,349.41,344.00,340.84,339.94,339.94,339.49,339.49,332.73,324.16,319.65,308.82,307.02,307.02,307.02,306.57,306.57,306.12,306.12,306.12,306.12,306.12,306.12,306.12,306.12,306.12,306.12,306.12,306.12,306.12,306.12,306.57,306.57,306.57,306.57,306.57,306.57,306.57,306.57,306.57,306.57,306.57,306.57,306.57,306.57,306.57,306.57,306.57,306.57,306.57,306.57,306.57,306.57,306.57,306.57,307.02,307.02,307.02,307.02,307.02,307.02,307.02,307.02,307.02,306.57,306.57,306.57,306.57,306.57,306.57,306.57,306.57,306.57,306.57,306.57,306.57,307.02,307.02,307.02,307.02,307.02,307.02,307.02,307.02,307.02,307.02,307.02,306.57,306.57,306.57,306.57,306.57,306.57,306.57,306.57,306.57,306.57,306.57,307.02,306.57,306.57,306.57,306.57,306.57,306.57,306.57,306.57,306.57,306.57,306.57,306.57,306.57,306.57,306.57,306.57,306.57,306.57,306.12,306.12,306.12,306.12,306.12,306.12,306.12,306.12,306.12,306.12,306.12,306.12,306.12,306.12,306.12,306.12,306.12,306.12,306.57,306.57,306.57,306.57,398.12,398.12,306.57,306.57,398.12,398.12,398.12,398.12,398.12,398.12,398.12,398.12,384.14,384.14,384.14,384.14,384.14,384.14,384.14,384.14,384.14,384.14,384.14,384.14,384.14,384.14,373.76,373.76,373.76,373.76,373.76,373.76,373.76,373.76,373.76,373.76,373.76,373.76,373.76,373.76,373.76,384.14,384.14,384.14,384.14,384.14,384.14,384.14,384.14,398.12,398.12,398.12,398.12,398.12,398.12,398.12,398.12,398.12,398.12,398.12,398.12,398.12,398.12,398.12,398.12,398.12,398.12,398.12,398.12,398.12,398.12,398.12,384.14,384.14,384.14,384.14,384.14,384.14,398.12,398.12,398.12,398.12,398.12,398.12,398.12,398.12,398.12,398.12,398.12,398.12,398.12,398.12,398.12,398.12,398.12,398.12,398.12,398.12,398.12,398.12,398.12,397.67,397.67,397.67,397.67,397.67,397.67,397.67,397.67,397.67,397.67,397.67,398.12,398.12,398.12,398.12,398.12,398.12,398.12,398.12,398.12,398.12,398.12,398.12,398.12,398.12,397.67,397.67,397.67,397.67,397.67,397.67,397.67,397.67,397.67,397.67,397.67,397.67,397.67,397.67,397.67,397.67,397.67,397.67,394.06,394.06,394.06,394.06,391.80,391.80,391.80,391.80,391.80,391.80,390.00,390.00,390.00,390.00,390.00,390.00,390.00,390.00,391.80,391.80,391.80,391.80,394.06,394.06,394.06,394.06,391.80,391.80,391.80,391.80,391.80,390.00,388.65,388.65,388.65,385.49,385.49,377.82,371.51,359.78,359.78,347.16,340.84,340.84,334.53,326.86,326.86,323.71,321.90,321.90,318.75,315.14,315.14
338.59,338.59,338.59,338.59,338.59,338.59,338.59,338.59,338.59,338.59,338.59,338.59,338.59,338.59,338.59,338.59,338.59,338.59,338.59,338.59,338.59,338.59,338.59,338.59,338.59,338.59,338.59,338.59,338.59,338.59,338.59,338.59,338.59,338.59,338.59,338.59,338.59,338.59,338.59,338.59,338.59,338.59,338.59,338.59,338.59,338.59,338.59,338.59,338.59,349.41,349.41,349.41,349.41,349.41,349.41,349.41,359.78,359.78,359.78,359.78,359.78,359.78,349.41,349.41,349.41,349.41,349.41,349.41,349.41,349.41,349.41,349.41,349.41,349.41,349.41,349.41,349.41,349.41,349.41,349.86,349.41,349.41,350.31,350.76,352.57,355.73,358.43,357.98,357.08,355.27,352.57,346.71,341.75,340.39,339.94,339.94,339.49,339.49,339.49,332.27,324.16,320.55,311.53,306.57,306.12,306.12,306.12,306.12,306.12,306.12,306.12,306.12,306.12,306.12,306.12,306.12,306.12,306.12,306.12,306.12,306.12,306.12,306.12,306.57,306.57,306.57,306.12,306.12,306.12,306.12,306.57,306.57,306.57,306.57,306.57,306.57,306.57,306.57,306.57,306.57,306.57,306.57,306.57,306.57,306.57,306.57,306.57,306.57,306.57,306.57,306.57,306.57,306.57,306.57,306.57,306.57,306.57,306.57,306.57,306.57,306.57,306.57,306.57,306.57,306.57,306.57,306.57,306.57,306.57,306.57,306.57,306.57,306.57,306.57,306.57,306.57,306.57,306.57,306.57,306.57,306.57,306.57,306.57,306.57,306.57,306.57,306.57,306.57,306.57,306.57,306.57,306.57,306.57,306.57,306.57,306.57,306.57,306.57,306.57,306.57,306.57,306.57,306.57,306.12,306.12,306.12,306.12,306.12,306.12,306.12,306.12,306.12,306.12,306.12,306.12,306.12,306.12,306.12,306.12,306.12,306.12,306.12,306.12,306.12,306.12,306.12,320.55,328.67,398.12,398.12,398.12,398.12,398.12,398.12,398.12,398.12,398.12,398.12,398.12,398.12,398.12,398.12,398.12,398.12,398.12,398.12,384.14,384.14,384.14,384.14,384.14,384.14,384.14,384.14,384.14,384.14,384.14,373.76,373.76,373.76,373.76,373.76,373.76,373.76,373.76,373.76,373.76,373.76,373.76,373.76,384.14,384.14,384.14,384.14,384.14,384.14,384.14,384.14,398.12,398.12,398.12,398.12,398.12,398.12,398.12,398.12,398.12,398.12,398.12,398.12,398.12,398.12,398.12,398.12,398.12,398.12,398.12,398.12,398.12,398.12,398.12,384.14,384.14,384.14,384.14,384.14,384.14,398.12,398.12,398.12,398.12,398.12,398.12,398.12,398.12,398.12,398.12,398.12,398.12,398.12,398.12,398.12,398.12,398.12,398.12,398.12,398.12,398.12,398.12,398.12,397.67,397.67,397.67,397.67,397.67,397.67,397.67,397.67,397.67,397.67,397.67,397.67,397.67,398.12,398.12,398.12,398.12,398.12,398.12,398.12,398.12,398.12,398.12,397.67,397.67,397.67,397.67,397.67,397.67,397.67,397.67,397.67,397.67,397.67,397.67,397.67,397.67,397.67,397.67,397.67,397.67,397.67,394.06,394.06,394.06,394.06,394.06,391.80,391.80,391.80,391.80,391.80,391.80,390.00,390.00,390.00,390.00,390.00,390.00,391.80,391.80,391.80,391.80,391.80,391.80,394.06,394.06,394.06,394.06,391.80,391.80,391.80,391.80,391.80,390.00,388.65,388.65,388.65,385.49,385.49,377.82,371.51,359.78,359.78,347.16,340.84,340.84,334.53,326.86,326.86,323.71,321.90,321.90,318.75,315.14,315.14
338.59,338.59,338.59,338.59,338.59,338.59,338.59,338.59,338.59,338.59,338.59,338.59,338.59,338.59,338.59,338.59,338.59,338.59,338.59,338.59,338.59,338.59,338.59,338.59,338.59,338.59,338.59,338.59,338.59,338.59,338.59,338.59,338.59,338.59,338.59,338.59,338.59,338.59,338.59,338.59,338.59,338.59,338.59,338.59,338.59,338.59,338.59,338.59,349.41,349.41,349.41,349.41,349.41,349.41,349.41,359.78,359.78,359.78,359.78,359.78,359.78,359.78,359.78,359.78,349.41,349.41,349.41,349.41,349.41,349.41,349.41,349.41,349.41,349.41,349.41,349.41,349.41,349.41,349.41,349.41,349.41,349.41,349.41,349.41,352.57,357.08,359.33,358.43,357.08,354.82,349.86,343.55,340.84,339.49,339.49,339.49,339.04,339.49,339.04,339.04,332.73,327.31,325.06,321.00,316.49,311.98,311.98,309.73,309.73,306.12,306.12,306.12,306.12,306.12,306.12,306.12,306.12,306.12,306.12,306.12,306.12,306.12,306.12,306.57,306.57,306.57,306.12,306.12,306.12,306.12,306.57,306.57,306.57,306.57,306.57,306.57,306.57,306.57,306.57,306.57,306.57,306.57,306.57,306.57,306.57,306.57,306.57,306.57,306.57,306.57,306.57,306.57,306.57,306.57,306.57,306.57,306.57,306.57,306.57,306.57,306.57,306.57,306.57,306.57,306.57,306.57,306.57,306.57,306.57,306.57,306.57,306.57,306.57,306.57,306.57,306.57,306.57,306.57,306.57,306.57,306.57,306.57,306.57,306.57,306.57,306.57,306.57,306.57,306.57,306.57,306.57,306.57,306.57,306.57,306.57,306.57,306.57,306.57,306.57,306.57,306.57,306.57,306.57,306.12,306.12,306.12,306.12,306.12,306.12,306.12,306.12,306.12,306.12,306.12,306.12,306.12,306.12,306.12,306.12,306.12,306.12,306.12,306.12,306.12,306.12,306.12,323.25,336.33,398.12,398.12,398.12,398.12,398.12,398.12,398.12,398.12,398.12,398.12,398.12,398.12,398.12,398.12,398.12,398.12,398.12,398.12,384.14,384.14,384.14,384.14,384.14,384.14,384.14,384.14,384.14,384.14,384.14,373.76,373.76,373.76,373.76,373.76,373.76,373.76,373.76,373.76,373.76,373.76,373.76,373.76,384.14,384.14,384.14,384.14,384.14,384.14,384.14,384.14,384.14,398.12,398.12,398.12,398.12,398.12,398.12,398.12,398.12,398.12,398.12,398.12,398.12,398.12,398.12,398.12,398.12,398.12,398.12,398.12,398.12,398.12,384.14,384.14,384.14,384.14,384.14,384.14,384.14,398.12,398.12,398.12,398.12,398.12,398.12,398.12,398.12,398.12,398.12,398.12,398.12,398.12,398.12,398.12,398.12,398.12,398.12,398.12,398.12,398.12,398.12,398.12,397.67,397.67,397.67,397.67,397.67,397.67,397.67,397.67,397.67,397.67,397.67,397.67,397.67,397.67,397.67,397.67,398.12,398.12,398.12,398.12,398.12,398.12,398.12,397.67,397.67,397.67,397.67,397.67,397.67,397.67,397.67,397.67,397.67,397.67,397.67,397.67,397.67,397.67,397.67,397.67,397.67,397.67,394.06,394.06,394.06,394.06,394.06,391.80,391.80,391.80,391.80,391.80,391.80,391.80,391.80,391.80,391.80,391.80,391.80,391.80,391.80,391.80,391.80,391.80,391.80,394.06,394.06,394.06,394.06,391.80,391.80,391.80,391.80,391.80,390.00,390.00,390.00,388.65,385.49,385.49,377.82,371.51,359.78,359.78,347.16,340.84,340.84,334.53,326.86,326.86,323.71,320.55,320.55,318.75,315.14,315.14
338.59,338.59,338.59,338.59,338.59,338.59,338.59,338.59,338.59,338.59,338.59,338.59,338.59,338.59,338.59,338.59,338.59,338.59,338.59,338.59,338.59,338.59,330.47,330.47,330.47,330.47,330.47,338.59,338.59,338.59,338.59,338.59,338.59,338.59,338.59,338.59,338.59,338.59,338.59,338.59,338.59,338.59,338.59,338.59,338.59,338.59,338.59,338.59,349.41,349.41,349.41,349.41,349.41,349.41,349.41,359.78,359.78,359.78,359.78,359.78,359.78,359.78,359.78,359.78,349.41,349.41,349.41,349.41,349.41,349.41,349.41,349.41,349.41,349.41,349.41,349.41,349.41,349.41,349.41,349.41,349.41,349.41,349.41,349.41,359.78,359.78,359.78,358.43,357.08,353.47,346.25,341.75,340.39,339.49,339.49,339.49,339.04,339.04,339.04,339.49,340.39,337.24,336.33,339.49,339.04,334.08,330.02,329.57,326.86,319.20,308.82,308.82,309.73,306.12,306.12,307.02,307.02,306.12,306.12,306.12,306.12,306.12,306.12,306.12,306.12,306.12,306.12,306.12,306.12,306.12,306.12,306.12,306.12,306.12,306.57,306.57,306.57,306.57,306.57,306.57,306.57,306.57,306.57,306.57,306.57,306.57,306.57,306.57,306.57,306.57,306.57,306.57,306.57,306.57,306.57,306.57,306.57,306.57,306.57,306.57,306.57,306.57,306.57,306.57,306.57,306.57,306.57,306.57,306.57,306.57,306.57,306.57,306.57,306.57,306.57,306.57,306.57,306.57,306.57,306.57,306.57,306.57,306.57,306.57,306.57,306.57,306.57,306.57,306.57,306.57,306.57,306.57,306.57,306.57,306.57,306.57,306.57,306.57,306.57,306.57,306.57,306.12,306.12,306.12,306.12,306.12,306.12,306.12,306.12,306.12,306.12,306.12,306.12,306.12,306.12,306.12,306.12,306.12,306.12,306.12,306.12,306.12,306.12,306.12,306.12,306.12,306.12,306.12,398.12,398.12,398.12,398.12,398.12,398.12,398.12,398.12,398.12,398.12,398.12,398.12,398.12,398.12,398.12,398.12,398.12,398.12,384.14,384.14,384.14,384.14,384.14,384.14,384.14,384.14,384.14,384.14,384.14,373.76,373.76,373.76,373.76,373.76,373.76,373.76,373.76,373.76,373.76,373.76,384.14,384.14,384.14,384.14,384.14,384.14,384.14,384.14,384.14,384.14,384.14,398.12,398.12,398.12,398.12,398.12,398.12,398.12,398.12,398.12,398.12,398.12,398.12,398.12,398.12,398.12,398.12,398.12,398.12,398.12,398.12,384.14,384.14,384.14,384.14,384.14,384.14,384.14,384.14,398.12,398.12,398.12,398.12,398.12,398.12,398.12,398.12,398.12,398.12,398.12,398.12,398.12,398.12,398.12,398.12,398.12,398.12,398.12,398.12,398.12,398.12,398.12,397.67,397.67,397.67,397.67,397.67,397.67,397.67,397.67,397.67,397.67,397.67,397.67,397.67,397.67,397.67,397.67,398.12,398.12,398.12,398.12,398.12,398.12,398.12,397.67,397.67,397.67,397.67,397.67,397.67,397.67,397.67,397.67,397.67,397.67,397.67,397.67,397.67,397.67,397.67,397.67,397.67,397.67,397.67,394.06,394.06,394.06,394.06,394.06,394.06,391.80,391.80,391.80,391.80,391.80,391.80,391.80,391.80,391.80,391.80,391.80,391.80,391.80,391.80,391.80,394.06,394.06,394.06,394.06,394.06,391.80,391.80,391.80,391.80,391.80,390.00,390.00,390.00,388.65,385.49,385.49,377.82,371.51,359.78,359.78,347.16,340.84,340.84,334.53,326.86,326.86,323.71,320.55,320.55,318.75,315.14,315.14
338.59,338.59,338.59,338.59,338.59,338.59,338.59,338.59,338.59,338.59,338.59,338.59,338.59,338.59,338.59,338.59,338.59,338.59,338.59,338.59,338.59,338.59,330.47,330.47,330.47,338.59,338.59,338.59,338.59,338.59,338.59,338.59,338.59,338.59,338.59,338.59,338.59,338.59,338.59,338.59,338.59,338.59,338.59,338.59,338.59,338.59,338.59,338.59,349.41,349.41,349.41,349.41,349.41,349.41,349.41,359.78,359.78,359.78,359.78,359.78,359.78,359.78,359.78,359.78,349.41,349.41,349.41,349.41,349.41,349.41,349.41,349.41,349.41,349.41,349.41,349.41,349.41,349.41,349.41,349.41,349.41,349.41,349.41,349.41,359.78,359.78,359.78,357.08,353.47,348.96,344.45,341.29,339.94,339.49,339.04,339.49,339.04,339.04,339.04,339.04,340.39,346.25,355.27,355.27,356.63,351.22,351.22,349.41,344.90,336.33,331.82,330.92,330.47,322.80,318.29,312.88,307.02,306.12,306.12,306.12,306.12,306.12,306.12,306.12,306.12,306.12,306.12,306.12,306.12,306.12,306.12,306.12,306.12,306.12,306.57,306.57,306.57,306.57,306.57,306.57,306.57,306.57,306.57,306.57,306.57,306.57,306.57,306.57,306.57,306.57,306.57,306.57,306.57,306.57,306.57,306.57,306.57,306.57,306.57,306.57,306.57,306.57,306.57,306.57,306.57,306.57,306.57,306.57,306.57,306.57,306.57,306.57,306.57,306.57,306.57,306.57,306.57,306.57,306.57,306.57,306.57,306.57,306.57,306.57,306.57,306.57,306.57,306.57,306.57,306.57,306.57,306.57,306.57,306.57,306.57,306.57,306.57,306.12,306.12,306.12,306.12,306.12,306.12,306.12,306.12,306.12,306.12,306.12,306.12,306.12,306.12,306.12,306.12,306.12,306.12,306.12,306.12,306.12,306.12,306.12,306.12,306.12,306.12,306.12,306.12,306.12,306.12,306.12,398.12,398.12,398.12,398.12,398.12,398.12,398.12,398.12,398.12,398.12,398.12,398.12,398.12,398.12,398.12,398.12,398.12,398.12,384.14,384.14,384.14,384.14,384.14,384.14,384.14,384.14,384.14,384.14,384.14,373.76,373.76,373.76,373.76,373.76,373.76,373.76,384.14,384.14,384.14,384.14,384.14,384.14,384.14,384.14,384.14,384.14,384.14,384.14,384.14,384.14,398.12,398.12,398.12,398.12,398.12,398.12,398.12,398.12,398.12,398.12,398.12,398.12,398.12,398.12,398.12,398.12,398.12,398.12,398.12,398.12,398.12,384.14,384.14,384.14,384.14,384.14,384.14,384.14,384.14,398.12,398.12,398.12,398.12,398.12,398.12,398.12,397.67,397.67,397.67,397.67,398.12,398.12,398.12,398.12,398.12,398.12,398.12,398.12,398.12,398.12,397.67,397.67,397.67,397.67,397.67,397.67,394.06,394.06,394.06,394.06,394.06,394.06,394.06,394.06,397.67,397.67,397.67,397.67,397.67,397.67,397.67,397.67,397.67,397.67,397.67,397.67,397.67,397.67,397.67,397.67,397.67,397.67,397.67,397.67,397.67,397.67,397.67,397.67,397.67,397.67,397.67,397.67,397.67,397.67,394.06,394.06,394.06,394.06,394.06,394.06,394.06,391.80,391.80,391.80,391.80,391.80,391.80,391.80,391.80,391.80,391.80,391.80,391.80,391.80,391.80,391.80,394.06,394.06,394.06,394.06,394.06,391.80,391.80,391.80,390.00,390.00,390.00,388.65,388.65,388.65,385.49,377.82,377.82,371.51,359.78,359.78,347.16,340.84,340.84,334.53,326.86,326.86,323.71,320.55,320.55,318.75,315.14,315.14
338.59,338.59,338.59,338.59,338.59,338.59,338.59,338.59,338.59,338.59,338.59,338.59,338.59,338.59,338.59,338.59,338.59,338.59,338.59,338.59,338.59,330.47,330.47,330.47,330.47,338.59,338.59,338.59,338.59,338.59,338.59,338.59,338.59,338.59,338.59,338.59,338.59,338.59,338.59,338.59,338.59,338.59,338.59,338.59,338.59,338.59,338.59,338.59,349.41,349.41,349.41,349.41,349.41,349.41,349.41,359.78,359.78,359.78,359.78,359.78,359.78,359.78,359.78,359.78,349.41,349.41,349.41,349.41,349.41,349.41,349.41,349.41,349.41,349.41,349.41,349.41,349.41,349.41,349.41,349.41,349.41,349.41,349.41,349.41,349.41,349.41,349.41,352.57,349.41,347.61,342.20,340.39,339.49,339.04,338.59,339.04,338.59,339.04,338.59,339.49,341.75,350.76,358.43,363.39,365.20,365.20,364.29,363.39,362.49,353.92,348.51,345.35,348.06,336.33,332.27,325.96,311.53,306.12,306.12,306.12,306.12,306.12,306.12,306.12,306.12,306.12,306.12,306.12,306.12,306.12,306.12,306.12,306.12,306.12,306.57,306.57,306.57,306.57,306.57,306.57,306.57,306.57,306.57,306.57,306.57,306.57,306.57,306.57,306.57,306.57,306.57,306.57,306.57,306.57,306.57,306.57,306.57,306.57,306.57,306.57,306.57,306.57,306.57,306.57,306.57,306.57,306.57,306.57,306.57,306.57,306.57,306.57,306.57,306.57,306.57,306.57,306.57,306.57,306.57,306.57,306.57,306.57,306.57,306.57,306.57,306.57,306.57,306.57,306.57,306.57,306.57,306.57,306.57,306.57,306.57,306.57,306.57,306.12,306.12,306.12,306.12,306.12,306.12,306.12,306.12,306.12,306.12,306.12,306.12,306.12,306.12,306.12,306.12,306.12,306.12,306.12,306.12,306.12,306.12,306.12,306.12,306.12,306.12,306.12,306.12,306.12,398.12,398.12,398.12,398.12,398.12,398.12,398.12,398.12,398.12,398.12,398.12,398.12,398.12,398.12,398.12,398.12,398.12,398.12,398.12,398.12,384.14,384.14,384.14,384.14,384.14,384.14,384.14,384.14,384.14,384.14,384.14,373.76,373.76,373.76,373.76,373.76,373.76,384.14,384.14,384.14,384.14,384.14,384.14,384.14,384.14,384.14,384.14,384.14,384.14,384.14,384.14,384.14,398.12,398.12,398.12,398.12,398.12,398.12,398.12,398.12,398.12,398.12,398.12,398.12,398.12,398.12,398.12,398.12,398.12,398.12,398.12,398.12,398.12,398.12,384.14,384.14,384.14,384.14,384.14,384.14,384.14,398.12,398.12,398.12,398.12,398.12,398.12,397.67,397.67,397.67,397.67,397.67,397.67,397.67,397.67,398.12,398.12,398.12,398.12,398.12,398.12,398.12,397.67,397.67,397.67,397.67,397.67,397.67,394.06,394.06,394.06,394.06,394.06,394.06,394.06,394.06,394.06,397.67,397.67,397.67,397.67,397.67,397.67,397.67,397.67,397.67,397.67,397.67,397.67,397.67,397.67,397.67,397.67,397.67,397.67,397.67,397.67,397.67,397.67,397.67,397.67,397.67,397.67,397.67,397.67,397.67,394.06,394.06,394.06,394.06,394.06,394.06,394.06,394.06,391.80,391.80,394.06,394.06,391.80,391.80,391.80,391.80,391.80,391.80,391.80,394.06,394.06,394.06,394.06,394.06,394.06,394.06,394.06,391.80,391.80,391.80,390.00,390.00,390.00,388.65,388.65,388.65,382.33,377.82,377.82,365.20,359.78,359.78,347.16,340.84,340.84,334.53,326.86,326.86,323.71,320.55,320.55,318.75,315.14,315.14
338.59,338.59,338.59,338.59,338.59,338.59,338.59,338.59,338.59,338.59,338.59,338.59,338.59,338.59,338.59,338.59,338.59,338.59,338.59,338.59,338.59,330.47,338.59,338.59,338.59,338.59,338.59,338.59,338.59,338.59,338.59,338.59,338.59,338.59,338.59,338.59,338.59,338.59,338.59,338.59,338.59,338.59,338.59,338.59,338.59,338.59,338.59,338.59,349.41,349.41,349.41,349.41,349.41,349.41,349.41,359.78,359.78,359.78,359.78,359.78,359.78,359.78,359.78,359.78,349.41,349.41,349.41,349.41,349.41,349.41,349.41,349.41,349.41,349.41,349.41,349.41,349.41,349.41,349.41,349.41,349.41,349.41,349.41,349.41,349.41,349.41,349.41,349.41,348.96,347.61,338.59,338.59,338.59,338.59,338.59,339.49,338.59,338.59,338.59,339.04,343.55,350.76,360.24,364.29,365.65,365.65,366.10,366.10,366.10,366.55,366.10,366.10,366.55,362.49,346.71,334.98,328.22,312.43,306.12,306.12,306.12,306.12,306.12,306.12,306.12,306.12,306.12,306.12,306.12,306.12,306.12,306.12,306.12,306.12,306.12,306.12,307.47,306.57,306.57,306.57,307.02,307.47,307.02,306.57,306.57,306.57,306.57,306.57,306.57,306.57,306.57,306.57,306.57,306.57,306.57,306.57,306.57,306.57,306.57,306.57,306.57,306.57,306.57,306.57,306.12,306.12,306.12,306.57,306.57,306.57,306.57,306.57,306.57,306.57,306.57,306.57,306.57,306.57,306.57,306.57,306.57,306.57,306.57,306.57,306.57,306.57,306.57,306.57,306.57,306.57,306.57,306.57,306.57,306.57,306.57,306.57,306.12,306.12,306.12,306.12,306.12,306.12,306.12,306.12,306.12,306.12,306.12,306.12,306.12,306.12,306.12,306.12,306.12,306.12,306.12,306.12,306.12,306.12,306.12,306.12,306.12,306.12,306.12,306.12,306.12,306.12,384.14,384.14,398.12,398.12,398.12,398.12,398.12,398.12,398.12,398.12,398.12,398.12,398.12,398.12,398.12,398.12,398.12,398.12,398.12,398.12,384.14,384.14,384.14,384.14,384.14,384.14,384.14,384.14,384.14,384.14,384.14,373.76,373.76,373.76,373.76,373.76,373.76,384.14,384.14,384.14,384.14,384.14,384.14,384.14,384.14,384.14,384.14,384.14,384.14,384.14,384.14,384.14,384.14,398.12,398.12,398.12,398.12,398.12,398.12,398.12,398.12,398.12,398.12,398.12,398.12,398.12,398.12,398.12,398.12,398.12,398.12,398.12,398.12,398.12,384.14,384.14,384.14,384.14,384.14,384.14,384.14,398.12,398.12,398.12,398.12,398.12,398.12,397.67,397.67,397.67,397.67,397.67,397.67,397.67,397.67,398.12,398.12,398.12,398.12,398.12,398.12,398.12,397.67,397.67,397.67,397.67,397.67,397.67,394.06,394.06,394.06,394.06,394.06,394.06,394.06,394.06,394.06,397.67,397.67,397.67,397.67,397.67,397.67,397.67,397.67,397.67,397.67,397.67,397.67,397.67,397.67,397.67,397.67,397.67,397.67,397.67,397.67,397.67,397.67,397.67,397.67,397.67,397.67,397.67,397.67,397.67,394.06,394.06,394.06,394.06,394.06,394.06,394.06,394.06,394.06,394.06,394.06,394.06,394.06,394.06,394.06,394.06,394.06,394.06,394.06,394.06,394.06,394.06,394.06,394.06,394.06,394.06,394.06,391.80,391.80,391.80,390.00,390.00,390.00,388.65,388.65,388.65,382.33,377.82,377.82,365.20,359.78,359.78,347.16,340.84,340.84,334.53,326.86,326.86,323.71,320.55,320.55,318.75,315.14,315.14
338.59,338.59,338.59,338.59,338.59,338.59,338.59,338.59,338.59,338.59,338.59,338.59,338.59,338.59,338.59,338.59,338.59,338.59,338.59,338.59,338.59,338.59,338.59,338.59,338.59,338.59,338.59,338.59,338.59,338.59,338.59,338.59,338.59,338.59,338.59,338.59,338.59,338.59,338.59,338.59,338.59,338.59,338.59,338.59,338.59,338.59,338.59,338.59,338.59,349.41,349.41,349.41,349.41,349.41,349.41,349.41,349.41,349.41,349.41,359.78,359.78,359.78,349.41,349.41,349.41,349.41,349.41,349.41,349.41,349.41,349.41,349.41,349.41,349.41,349.41,349.41,349.41,349.41,349.41,349.41,349.41,349.41,349.41,349.41,349.41,349.41,349.41,349.41,349.41,349.41,349.41,338.59,338.59,338.59,338.59,338.59,338.59,339.04,338.59,338.59,344.45,350.31,360.24,363.84,365.65,366.10,366.55,366.10,366.10,366.10,366.10,366.10,366.10,366.10,365.20,353.02,337.69,330.02,316.04,306.12,306.12,306.12,306.12,306.12,306.12,306.12,306.12,306.12,306.12,306.12,306.12,306.12,306.12,306.12,306.12,306.12,306.57,307.02,307.02,307.02,307.92,307.47,307.47,306.57,306.57,306.57,306.57,306.57,306.57,306.57,306.57,306.57,306.57,306.57,306.57,306.12,306.12,306.12,306.12,306.12,306.12,306.12,306.12,306.12,306.12,306.12,306.12,306.12,306.12,306.12,306.12,306.12,306.12,306.57,306.57,306.57,306.57,306.57,306.57,306.57,306.57,306.57,306.57,306.57,306.57,306.57,306.57,306.57,306.57,306.57,306.57,306.57,306.57,306.12,306.12,306.12,306.12,306.12,306.12,306.12,306.12,306.12,305.67,305.67,305.67,305.67,305.67,306.12,306.12,306.12,306.12,306.12,306.12,306.12,306.12,306.12,306.12,306.12,306.12,306.12,306.12,306.12,306.12,306.12,306.12,306.12,384.14,384.14,398.12,398.12,398.12,398.12,398.12,398.12,398.12,398.12,398.12,398.12,398.12,398.12,398.12,398.12,398.12,398.12,398.12,398.12,384.14,384.14,384.14,384.14,384.14,384.14,384.14,384.14,384.14,384.14,384.14,373.76,373.76,373.76,373.76,373.76,373.76,384.14,384.14,384.14,384.14,384.14,384.14,384.14,384.14,384.14,384.14,384.14,384.14,384.14,384.14,384.14,384.14,398.12,398.12,398.12,398.12,398.12,398.12,398.12,398.12,398.12,398.12,398.12,398.12,398.12,398.12,398.12,398.12,398.12,398.12,398.12,398.12,398.12,384.14,384.14,384.14,384.14,384.14,384.14,384.14,398.12,398.12,398.12,398.12,398.12,398.12,397.67,397.67,397.67,397.67,397.67,397.67,397.67,397.67,397.67,398.12,398.12,398.12,398.12,398.12,398.12,397.67,397.67,397.67,397.67,397.67,397.67,394.06,394.06,394.06,394.06,394.06,394.06,394.06,394.06,394.06,394.06,394.06,397.67,397.67,397.67,397.67,397.67,397.67,397.67,397.67,397.67,397.67,397.67,397.67,397.67,397.67,397.67,397.67,397.67,397.67,397.67,397.67,397.67,397.67,397.67,397.67,397.67,394.06,394.06,394.06,394.06,394.06,394.06,394.06,394.06,394.06,394.06,394.06,394.06,394.06,394.06,394.06,394.06,394.06,394.06,394.06,394.06,394.06,394.06,394.06,394.06,394.06,394.06,394.06,394.06,394.06,391.80,391.80,391.80,390.00,390.00,390.00,388.65,388.65,388.65,382.33,377.82,377.82,365.20,359.78,359.78,347.16,340.84,340.84,334.53,326.86,326.86,323.71,320.55,320.55,318.75,315.14,315.14
338.59,338.59,338.59,338.59,338.59,338.59,338.59,338.59,338.59,338.59,338.59,338.59,338.59,338.59,338.59,338.59,338.59,338.59,338.59,338.59,338.59,338.59,338.59,338.59,338.59,338.59,338.59,338.59,338.59,338.59,338.59,338.59,338.59,338.59,338.59,338.59,338.59,338.59,338.59,338.59,338.59,338.59,338.59,338.59,338.59,338.59,338.59,338.59,338.59,349.41,349.41,349.41,349.41,349.41,349.41,349.41,349.41,349.41,349.41,349.41,349.41,349.41,349.41,349.41,349.41,349.41,349.41,349.41,349.41,349.41,349.41,349.41,349.41,349.41,349.41,349.41,349.41,349.41,349.41,349.41,349.41,349.41,349.41,349.41,349.41,349.41,349.41,349.41,349.41,349.41,349.41,338.59,338.59,338.59,338.59,338.59,338.59,338.59,338.14,339.49,344.45,352.57,362.49,364.75,364.75,365.65,366.10,366.10,366.10,366.10,366.10,366.10,366.10,366.55,365.65,364.29,352.57,340.84,333.18,322.80,311.08,310.18,306.12,306.12,306.12,306.12,306.12,306.12,306.12,306.12,306.12,306.12,306.12,306.12,306.12,306.12,306.12,307.47,313.33,318.75,313.33,309.73,308.82,307.02,306.57,306.57,306.57,306.57,306.57,306.57,307.02,306.57,306.57,306.57,306.12,306.12,306.12,306.12,306.12,306.12,306.12,306.12,306.12,306.12,306.12,306.12,306.12,306.12,306.12,306.12,306.12,306.12,306.12,306.12,306.57,306.57,306.57,306.57,306.57,306.57,306.57,306.57,306.57,306.57,306.57,306.57,306.57,306.57,306.57,306.57,306.12,306.12,306.12,306.12,306.12,306.12,306.12,305.67,305.67,305.67,305.67,305.67,305.67,305.67,305.67,305.67,305.67,306.12,306.12,306.12,306.12,306.12,306.12,306.12,306.12,306.12,306.57,306.12,306.12,306.12,306.12,306.12,306.12,306.12,306.12,384.14,384.14,384.14,384.14,384.14,384.14,398.12,398.12,398.12,398.12,398.12,398.12,398.12,398.12,398.12,398.12,398.12,398.12,398.12,398.12,398.12,384.14,384.14,384.14,384.14,384.14,384.14,384.14,384.14,384.14,384.14,384.14,373.76,373.76,373.76,373.76,373.76,373.76,384.14,384.14,384.14,384.14,384.14,384.14,384.14,384.14,384.14,384.14,384.14,384.14,384.14,384.14,384.14,384.14,384.14,384.14,398.12,398.12,398.12,398.12,398.12,398.12,398.12,398.12,398.12,398.12,398.12,398.12,398.12,398.12,398.12,398.12,398.12,398.12,398.12,398.12,384.14,384.14,384.14,384.14,384.14,384.14,398.12,398.12,398.12,398.12,398.12,397.67,397.67,397.67,397.67,397.67,397.67,397.67,397.67,397.67,397.67,398.12,398.12,398.12,398.12,398.12,398.12,397.67,397.67,397.67,397.67,397.67,394.06,394.06,394.06,394.06,394.06,394.06,394.06,394.06,394.06,394.06,394.06,394.06,397.67,397.67,397.67,397.67,397.67,397.67,397.67,397.67,397.67,397.67,397.67,397.67,397.67,397.67,397.67,397.67,397.67,397.67,397.67,397.67,397.67,397.67,397.67,397.67,397.67,394.06,394.06,394.06,394.06,394.06,394.06,394.06,394.06,394.06,394.06,394.06,394.06,394.06,394.06,394.06,394.06,394.06,394.06,394.06,394.06,394.06,394.06,394.06,394.06,394.06,394.06,394.06,394.06,394.06,391.80,391.80,391.80,390.00,390.00,390.00,388.65,388.65,385.49,382.33,377.82,377.82,365.20,359.78,359.78,347.16,340.84,340.84,334.53,326.86,326.86,323.71,320.55,320.55,318.75,315.14,315.14
338.59,338.59,338.59,338.59,338.59,338.59,338.59,338.59,338.59,338.59,338.59,338.59,338.59,338.59,338.59,338.59,338.59,338.59,338.59,338.59,338.59,338.59,338.59,338.59,338.59,338.59,338.59,338.59,338.59,338.59,338.59,338.59,338.59,338.59,338.59,338.59,338.59,338.59,338.59,338.59,338.59,338.59,338.59,338.59,338.59,338.59,338.59,338.59,338.59,349.41,349.41,349.41,349.41,349.41,349.41,349.41,349.41,349.41,349.41,349.41,349.41,349.41,349.41,349.41,349.41,349.41,349.41,349.41,349.41,349.41,349.41,349.41,349.41,349.41,349.41,349.41,349.41,349.41,349.41,349.41,349.41,349.41,349.41,349.41,349.41,349.41,349.41,349.41,349.41,349.41,349.41,338.59,338.59,338.59,338.59,338.59,338.59,338.14,338.14,339.49,345.80,354.37,362.94,364.29,365.20,365.65,366.10,366.10,366.10,366.10,366.10,366.10,366.10,366.10,365.65,363.84,361.59,357.98,346.71,335.88,332.73,330.02,321.00,311.08,306.12,306.12,306.12,306.12,306.12,306.12,306.12,306.12,306.12,306.12,306.12,307.02,307.92,315.59,323.25,323.71,323.71,319.65,312.43,309.73,308.37,306.57,306.57,306.57,306.57,306.57,308.37,312.88,307.02,306.57,306.12,306.12,306.12,306.12,306.12,306.12,306.12,306.12,306.12,306.12,306.12,306.12,306.12,306.12,306.12,306.12,306.12,306.12,306.12,306.12,306.57,306.57,306.57,306.57,306.57,306.57,306.57,306.57,306.57,306.57,306.57,306.57,306.57,306.57,306.57,306.57,306.12,306.12,306.12,306.12,306.12,306.12,306.12,305.67,305.67,305.67,305.67,305.67,305.67,305.67,305.67,306.12,306.12,306.12,306.12,306.12,306.12,306.12,306.57,306.57,306.57,306.57,306.57,306.57,306.57,306.57,306.57,306.57,306.57,384.14,384.14,384.14,384.14,384.14,384.14,384.14,384.14,384.14,384.14,384.14,384.14,384.14,384.14,384.14,384.14,384.14,384.14,384.14,384.14,384.14,384.14,384.14,384.14,384.14,384.14,384.14,384.14,384.14,384.14,384.14,384.14,384.14,384.14,373.76,373.76,373.76,373.76,373.76,373.76,384.14,384.14,384.14,384.14,384.14,384.14,384.14,384.14,384.14,384.14,384.14,384.14,384.14,384.14,384.14,384.14,384.14,384.14,384.14,398.12,398.12,398.12,398.12,398.12,398.12,398.12,398.12,398.12,398.12,398.12,398.12,398.12,398.12,398.12,398.12,398.12,398.12,398.12,384.14,384.14,384.14,384.14,384.14,384.14,398.12,398.12,398.12,398.12,398.12,397.67,397.67,397.67,397.67,397.67,397.67,397.67,397.67,397.67,397.67,397.67,397.67,398.12,398.12,398.12,398.12,397.67,397.67,397.67,397.67,397.67,394.06,394.06,394.06,394.06,394.06,394.06,394.06,394.06,394.06,394.06,394.06,394.06,397.67,397.67,397.67,397.67,397.67,397.67,397.67,397.67,397.67,397.67,397.67,397.67,397.67,397.67,397.67,397.67,397.67,397.67,397.67,397.67,397.67,397.67,397.67,397.67,397.67,394.06,394.06,394.06,394.06,394.06,394.06,394.06,394.06,394.06,394.06,394.06,394.06,394.06,394.06,394.06,394.06,394.06,394.06,394.06,394.06,394.06,394.06,394.06,394.06,394.06,394.06,394.06,394.06,394.06,391.80,391.80,391.80,390.00,390.00,390.00,388.65,388.65,385.49,382.33,377.82,377.82,365.20,359.78,359.78,347.16,340.84,340.84,334.53,326.86,326.86,323.71,320.55,320.55,318.75,315.14,315.14
330.47,338.59,338.59,338.59,338.59,338.59,338.59,338.59,338.59,338.59,338.59,338.59,338.59,338.59,338.59,338.59,338.59,338.59,338.59,338.59,338.59,330.47,330.47,330.47,338.59,338.59,338.59,338.59,338.59,338.59,338.59,338.59,338.59,338.59,338.59,338.59,338.59,338.59,338.59,338.59,338.59,338.59,338.59,338.59,338.59,338.59,338.59,338.59,338.59,338.59,338.59,338.59,338.59,349.41,349.41,349.41,349.41,349.41,349.41,349.41,349.41,349.41,349.41,349.41,349.41,349.41,349.41,349.41,349.41,349.41,349.41,349.41,349.41,349.41,349.41,349.41,349.41,349.41,349.41,349.41,349.41,349.41,349.41,349.41,349.41,349.41,349.41,349.41,338.59,338.59,338.59,338.59,338.59,338.59,338.59,338.59,338.59,335.88,335.88,338.14,345.35,355.27,362.04,363.39,366.10,366.10,366.10,366.10,366.10,366.10,366.10,366.10,366.10,366.10,365.65,362.94,360.69,360.24,359.78,351.67,347.61,340.84,333.63,329.12,321.45,317.84,314.69,311.98,306.12,306.12,307.02,306.12,306.12,307.02,306.12,313.33,324.61,329.57,334.98,340.84,341.29,336.33,328.67,321.00,315.59,306.57,306.57,306.57,306.57,306.57,316.04,320.10,316.49,307.47,306.12,306.12,306.12,306.12,306.12,306.12,306.12,306.12,306.12,306.12,306.12,306.12,306.12,306.12,306.12,306.12,306.12,306.12,306.12,306.12,306.57,306.57,306.57,306.57,306.57,306.57,306.57,306.57,306.57,306.57,306.57,306.57,306.57,306.57,306.57,306.12,306.12,306.12,306.12,306.12,306.12,306.12,305.67,305.67,305.67,305.67,305.67,305.67,305.67,305.67,305.67,306.12,306.12,306.12,306.12,306.12,306.12,306.12,306.57,306.57,306.57,306.57,306.57,306.57,306.57,306.57,306.57,306.57,306.57,384.14,384.14,384.14,384.14,384.14,384.14,384.14,384.14,384.14,384.14,384.14,384.14,384.14,384.14,384.14,384.14,384.14,384.14,384.14,384.14,384.14,384.14,384.14,384.14,384.14,384.14,384.14,384.14,384.14,384.14,384.14,384.14,384.14,384.14,373.76,373.76,373.76,384.14,384.14,384.14,384.14,384.14,384.14,384.14,384.14,384.14,384.14,384.14,384.14,384.14,384.14,384.14,384.14,384.14,384.14,384.14,384.14,384.14,384.14,398.12,398.12,398.12,384.14,398.12,398.12,398.12,398.12,398.12,398.12,398.12,398.12,398.12,398.12,398.12,398.12,398.12,398.12,398.12,384.14,384.14,384.14,384.14,384.14,384.14,398.12,398.12,398.12,398.12,398.12,397.67,397.67,397.67,397.67,397.67,397.67,397.67,397.67,397.67,397.67,397.67,397.67,398.12,398.12,398.12,398.12,398.12,398.12,397.67,397.67,397.67,397.67,394.06,394.06,394.06,394.06,394.06,394.06,394.06,394.06,394.06,394.06,394.06,397.67,397.67,397.67,397.67,397.67,397.67,397.67,397.67,397.67,397.67,397.67,397.67,397.67,397.67,397.67,397.67,397.67,397.67,397.67,397.67,397.67,397.67,397.67,397.67,397.67,394.06,394.06,394.06,394.06,394.06,394.06,394.06,394.06,394.06,394.06,394.06,394.06,394.06,394.06,394.06,394.06,394.06,394.06,394.06,394.06,394.06,394.06,394.06,394.06,394.06,394.06,394.06,394.06,394.06,391.80,391.80,391.80,391.80,391.80,390.00,388.65,388.65,385.49,382.33,377.82,377.82,371.51,359.78,359.78,347.16,340.84,340.84,334.53,326.86,326.86,323.71,321.90,321.90,318.75,316.49,316.49
330.47,330.47,330.47,330.47,330.47,330.47,330.47,338.59,338.59,338.59,338.59,338.59,338.59,338.59,338.59,338.59,338.59,338.59,330.47,330.47,330.47,330.47,330.47,330.47,330.47,338.59,338.59,338.59,338.59,338.59,338.59,338.59,338.59,338.59,338.59,338.59,338.59,338.59,338.59,338.59,338.59,338.59,338.59,338.59,338.59,338.59,338.59,338.59,338.59,338.59,338.59,338.59,338.59,338.59,338.59,338.59,349.41,349.41,349.41,349.41,349.41,349.41,349.41,349.41,349.41,349.41,349.41,349.41,349.41,349.41,349.41,349.41,349.41,349.41,349.41,349.41,349.41,349.41,349.41,349.41,349.41,349.41,349.41,349.41,349.41,338.59,338.59,338.59,338.59,338.59,338.59,338.59,338.59,338.59,338.59,330.47,330.47,330.47,334.08,337.69,346.71,353.92,361.59,359.78,366.10,366.10,366.10,366.10,366.10,366.10,366.10,366.10,366.10,366.10,366.10,359.78,359.78,359.78,359.78,360.24,359.78,360.24,350.76,341.29,333.63,333.63,333.63,332.27,324.16,316.49,308.82,306.12,308.82,315.59,320.55,328.67,334.98,341.29,348.96,351.22,349.86,347.61,342.65,340.84,345.35,359.78,359.78,359.78,359.78,331.82,338.14,333.18,328.67,322.80,312.43,310.18,308.82,306.12,306.12,306.12,306.12,306.12,306.12,306.12,306.12,306.12,306.12,306.12,306.12,306.12,306.12,306.12,306.12,306.57,306.57,306.57,306.57,306.57,306.57,306.57,306.57,306.57,306.57,306.57,306.57,306.57,306.57,306.57,306.57,306.12,306.12,306.12,306.12,306.12,306.12,306.12,305.67,305.67,305.67,305.67,305.67,305.67,305.67,305.67,305.67,306.12,306.12,306.12,306.12,306.12,306.12,306.12,306.57,306.57,306.57,306.57,306.57,306.57,306.57,306.57,306.57,306.57,334.98,356.18,373.76,375.57,384.14,384.14,384.14,384.14,384.14,384.14,384.14,384.14,384.14,384.14,384.14,384.14,384.14,384.14,384.14,384.14,384.14,384.14,384.14,384.14,384.14,384.14,384.14,384.14,384.14,384.14,384.14,384.14,384.14,384.14,384.14,384.14,373.76,373.76,384.14,384.14,384.14,384.14,384.14,384.14,384.14,384.14,384.14,384.14,384.14,384.14,384.14,384.14,384.14,384.14,384.14,384.14,384.14,384.14,384.14,384.14,398.12,398.12,398.12,398.12,398.12,398.12,398.12,398.12,398.12,398.12,398.12,398.12,398.12,398.12,398.12,398.12,398.12,398.12,398.12,398.12,398.12,398.12,398.12,398.12,398.12,398.12,398.12,398.12,398.12,398.12,397.67,397.67,397.67,397.67,397.67,397.67,397.67,397.67,397.67,397.67,397.67,397.67,398.12,398.12,398.12,398.12,398.12,398.12,397.67,397.67,397.67,397.67,394.06,394.06,394.06,394.06,394.06,394.06,394.06,394.06,394.06,394.06,394.06,397.67,397.67,397.67,397.67,397.67,397.67,397.67,397.67,397.67,397.67,397.67,397.67,397.67,397.67,397.67,397.67,397.67,397.67,397.67,397.67,397.67,397.67,397.67,397.67,397.67,394.06,394.06,394.06,394.06,394.06,394.06,394.06,394.06,394.06,394.06,394.06,394.06,394.06,394.06,394.06,394.06,394.06,394.06,394.06,394.06,394.06,394.06,394.06,394.06,394.06,394.06,394.06,394.06,394.06,391.80,391.80,391.80,391.80,391.80,390.00,388.65,388.65,385.49,382.33,377.82,377.82,371.51,359.78,359.78,347.16,340.84,340.84,334.53,326.86,326.86,323.71,321.90,321.90,318.75,315.14,315.14
330.47,330.47,330.47,330.47,330.47,330.47,330.47,330.47,330.47,330.47,338.59,338.59,338.59,338.59,338.59,338.59,338.59,338.59,330.47,330.47,330.47,330.47,330.47,330.47,330.47,330.47,330.47,338.59,338.59,338.59,338.59,338.59,338.59,338.59,338.59,338.59,338.59,338.59,338.59,338.59,338.59,338.59,338.59,338.59,338.59,330.47,330.47,330.47,330.47,330.47,330.47,330.47,338.59,338.59,338.59,338.59,338.59,338.59,338.59,338.59,338.59,338.59,338.59,338.59,338.59,349.41,349.41,349.41,349.41,349.41,349.41,349.41,349.41,349.41,338.59,338.59,338.59,349.41,349.41,349.41,349.41,349.41,349.41,338.59,338.59,338.59,338.59,338.59,338.59,338.59,338.59,338.59,338.59,338.59,330.47,330.47,330.47,330.47,334.98,339.04,346.71,351.67,357.98,359.78,359.78,359.78,359.78,366.10,366.10,366.10,366.10,366.10,366.10,366.10,366.10,359.78,359.78,359.78,359.78,360.24,359.78,359.78,360.24,359.78,355.27,357.53,345.80,346.71,336.78,334.08,326.86,325.96,330.92,332.27,332.27,339.94,346.71,350.31,350.76,351.67,353.02,353.47,351.22,351.22,352.12,359.78,359.78,359.78,359.78,349.41,346.25,349.41,344.90,336.33,331.82,325.96,319.65,311.08,307.92,306.12,306.12,307.02,306.12,306.12,309.27,308.37,308.37,306.12,307.02,306.12,306.12,306.12,306.12,306.57,306.57,306.57,306.57,306.57,306.57,306.57,306.57,306.57,306.57,306.57,306.57,306.57,306.57,306.57,306.57,306.12,306.12,306.12,306.12,306.12,306.12,306.12,306.12,306.12,305.67,305.67,305.67,306.12,305.67,305.67,305.67,306.12,306.12,306.12,306.12,306.12,306.12,313.33,319.20,325.51,366.10,306.57,306.57,306.57,366.10,366.10,366.10,366.10,366.10,360.24,363.39,366.10,373.76,373.76,373.76,373.76,373.76,373.76,373.76,373.76,373.76,373.76,373.76,373.76,373.76,373.76,373.76,373.76,373.76,384.14,384.14,384.14,384.14,384.14,384.14,384.14,384.14,384.14,384.14,384.14,384.14,384.14,384.14,384.14,384.14,384.14,384.14,384.14,384.14,384.14,384.14,384.14,384.14,384.14,384.14,384.14,384.14,384.14,384.14,384.14,384.14,384.14,384.14,384.14,384.14,384.14,384.14,384.14,398.12,398.12,398.12,398.12,398.12,398.12,398.12,398.12,398.12,398.12,398.12,398.12,398.12,398.12,398.12,398.12,398.12,398.12,398.12,398.12,398.12,398.12,398.12,398.12,398.12,398.12,398.12,398.12,398.12,398.12,397.67,397.67,397.67,397.67,397.67,397.67,397.67,397.67,397.67,397.67,398.12,398.12,398.12,398.12,398.12,398.12,398.12,398.12,397.67,397.67,397.67,397.67,394.06,394.06,394.06,394.06,394.06,394.06,394.06,394.06,394.06,394.06,394.06,397.67,397.67,397.67,397.67,397.67,397.67,397.67,397.67,397.67,397.67,397.67,397.67,397.67,397.67,397.67,397.67,397.67,397.67,397.67,397.67,397.67,397.67,397.67,397.67,397.67,397.67,397.67,397.67,397.67,394.06,394.06,394.06,394.06,394.06,394.06,394.06,397.67,397.67,394.06,394.06,394.06,394.06,394.06,394.06,394.06,394.06,394.06,394.06,394.06,394.06,394.06,394.06,394.06,394.06,394.06,394.06,391.80,391.80,391.80,390.00,388.65,388.65,388.65,382.33,377.82,377.82,371.51,359.78,359.78,353.47,340.84,340.84,334.53,330.02,330.02,325.96,321.90,321.90,318.75,315.14,315.14
330.47,330.47,330.47,330.47,330.47,330.47,330.47,330.47,338.59,338.59,338.59,338.59,338.59,338.59,338.59,338.59,338.59,338.59,330.47,330.47,330.47,330.47,330.47,330.47,330.47,330.47,330.47,338.59,338.59,338.59,338.59,338.59,338.59,338.59,338.59,338.59,338.59,338.59,338.59,338.59,338.59,338.59,338.59,338.59,338.59,330.47,330.47,330.47,330.47,330.47,330.47,330.47,338.59,338.59,338.59,338.59,338.59,338.59,338.59,338.59,338.59,338.59,338.59,338.59,338.59,349.41,349.41,349.41,349.41,349.41,349.41,349.41,349.41,349.41,338.59,338.59,338.59,349.41,349.41,349.41,349.41,349.41,349.41,338.59,338.59,338.59,338.59,338.59,338.59,338.59,338.59,338.59,338.59,338.59,330.47,330.47,330.47,338.59,338.59,338.59,349.41,349.41,349.41,359.78,359.78,359.78,359.78,366.10,366.10,366.10,366.10,366.10,366.10,366.10,366.10,359.78,359.78,359.78,359.78,359.78,359.78,359.78,359.78,359.78,359.78,360.24,359.78,359.78,357.98,347.16,338.59,336.78,344.00,343.10,349.86,350.76,349.86,350.31,350.31,351.67,352.12,354.37,349.41,359.78,359.78,359.78,359.78,359.78,359.78,359.78,359.78,359.78,359.78,359.78,346.25,337.24,329.57,327.76,323.25,319.20,315.14,310.63,314.69,318.75,321.00,322.80,320.55,318.29,308.37,306.12,306.12,306.12,306.12,306.57,306.57,306.57,306.57,306.57,306.57,306.57,306.57,306.57,306.57,306.57,306.57,306.57,306.57,306.57,306.57,306.12,306.12,306.12,306.12,306.12,306.12,306.12,307.02,306.57,306.12,307.02,306.57,305.67,305.67,305.67,305.67,306.12,306.12,306.12,306.12,307.02,311.53,326.41,332.73,340.84,366.10,366.10,366.10,366.10,366.10,366.10,366.10,366.10,366.10,365.65,364.75,366.10,366.10,366.10,366.10,373.76,373.76,373.76,373.76,373.76,373.76,373.76,373.76,373.76,373.76,373.76,373.76,373.76,373.76,373.76,373.76,373.76,373.76,373.76,373.76,384.14,384.14,384.14,384.14,384.14,384.14,384.14,384.14,384.14,384.14,384.14,384.14,384.14,384.14,384.14,384.14,384.14,384.14,384.14,384.14,384.14,384.14,384.14,384.14,384.14,384.14,384.14,384.14,384.14,384.14,384.14,384.14,384.14,384.14,384.14,398.12,398.12,398.12,398.12,398.12,398.12,398.12,398.12,398.12,398.12,384.14,384.14,384.14,384.14,384.14,384.14,384.14,384.14,384.14,384.14,384.14,384.14,384.14,398.12,398.12,398.12,398.12,398.12,398.12,397.67,397.67,397.67,397.67,397.67,397.67,397.67,397.67,397.67,398.12,398.12,398.12,398.12,398.12,398.12,398.12,398.12,398.12,397.67,397.67,397.67,397.67,394.06,394.06,394.06,394.06,394.06,394.06,394.06,394.06,394.06,394.06,397.67,397.67,397.67,397.67,397.67,397.67,397.67,397.67,397.67,398.12,397.67,397.67,397.67,397.67,397.67,397.67,397.67,397.67,397.67,397.67,397.67,397.67,397.67,397.67,397.67,397.67,397.67,397.67,397.67,394.06,394.06,394.06,394.06,394.06,394.06,394.06,397.67,397.67,397.67,397.67,394.06,394.06,394.06,394.06,394.06,394.06,394.06,394.06,394.06,394.06,394.06,394.06,394.06,394.06,394.06,394.06,391.80,391.80,391.80,390.00,388.65,388.65,388.65,382.33,377.82,377.82,371.51,365.20,365.20,353.47,347.16,347.16,336.33,330.02,330.02,325.96,321.90,321.90,318.75,315.14,315.14
330.47,330.47,330.47,330.47,330.47,330.47,330.47,330.47,338.59,338.59,338.59,330.47,330.47,330.47,330.47,330.47,330.47,330.47,330.47,330.47,330.47,330.47,330.47,330.47,330.47,330.47,330.47,330.47,338.59,338.59,338.59,338.59,338.59,338.59,338.59,338.59,338.59,338.59,338.59,338.59,338.59,338.59,338.59,330.47,330.47,330.47,330.47,330.47,330.47,330.47,330.47,330.47,330.47,330.47,330.47,330.47,338.59,338.59,338.59,338.59,338.59,338.59,338.59,338.59,338.59,338.59,338.59,338.59,338.59,338.59,338.59,338.59,338.59,338.59,338.59,338.59,338.59,338.59,338.59,349.41,349.41,338.59,338.59,338.59,338.59,338.59,338.59,338.59,338.59,338.59,338.59,330.47,330.47,330.47,330.47,330.47,330.47,338.59,338.59,338.59,349.41,349.41,349.41,359.78,359.78,359.78,359.78,359.78,359.78,359.78,359.78,359.78,359.78,359.78,359.78,359.78,359.78,359.78,359.78,359.78,359.78,359.78,359.78,359.78,359.78,359.78,359.78,360.24,359.78,359.78,356.63,355.73,355.27,354.82,351.22,349.86,349.41,349.41,349.41,349.41,349.41,349.41,359.78,359.78,359.78,359.78,359.78,359.78,359.78,359.78,359.78,359.78,359.78,359.78,349.41,349.41,349.41,340.84,334.08,334.08,333.63,333.18,330.47,330.92,335.88,339.04,335.43,327.76,322.35,308.82,308.82,306.12,306.12,307.02,306.57,306.57,306.57,306.57,306.57,306.57,306.57,306.57,306.57,306.57,306.57,306.57,306.57,306.57,306.57,306.12,306.12,306.12,306.12,306.12,306.12,306.57,308.82,316.49,319.65,316.49,308.82,305.67,305.67,305.67,305.67,305.67,305.67,306.12,306.12,309.27,322.80,335.43,359.78,359.78,366.10,366.10,366.10,366.10,366.10,366.10,366.10,366.10,366.10,366.10,366.10,366.10,366.10,366.10,366.10,373.76,373.76,373.76,373.76,373.76,373.76,373.76,373.76,373.76,373.76,373.76,373.76,373.76,373.76,373.76,373.76,373.76,373.76,373.76,373.76,384.14,384.14,384.14,384.14,384.14,384.14,384.14,384.14,384.14,384.14,384.14,384.14,384.14,384.14,384.14,384.14,384.14,384.14,384.14,384.14,384.14,384.14,384.14,384.14,384.14,384.14,384.14,384.14,384.14,384.14,384.14,384.14,398.12,398.12,384.14,398.12,398.12,398.12,398.12,398.12,398.12,398.12,398.12,398.12,398.12,384.14,384.14,398.12,398.12,398.12,398.12,384.14,384.14,384.14,384.14,384.14,384.14,384.14,398.12,398.12,398.12,398.12,398.12,398.12,397.67,397.67,397.67,397.67,397.67,397.67,397.67,397.67,397.67,398.12,398.12,398.12,398.12,398.12,398.12,398.12,398.12,398.12,397.67,397.67,397.67,397.67,394.06,394.06,394.06,394.06,394.06,394.06,394.06,394.06,394.06,394.06,397.67,397.67,397.67,397.67,397.67,397.67,397.67,397.67,397.67,398.12,397.67,397.67,397.67,397.67,397.67,397.67,397.67,397.67,397.67,397.67,397.67,397.67,397.67,397.67,397.67,397.67,397.67,397.67,397.67,394.06,394.06,394.06,397.67,397.67,397.67,397.67,397.67,397.67,397.67,397.67,397.67,397.67,397.67,394.06,394.06,394.06,394.06,394.06,394.06,394.06,394.06,394.06,394.06,394.06,394.06,394.06,391.80,391.80,391.80,390.00,388.65,388.65,388.65,382.33,377.82,377.82,371.51,365.20,365.20,353.47,347.16,347.16,336.33,334.53,334.53,325.96,321.90,321.90,318.75,316.49,316.49
330.47,330.47,330.47,330.47,330.47,330.47,330.47,330.47,338.59,338.59,338.59,330.47,330.47,330.47,330.47,330.47,330.47,330.47,330.47,330.47,330.47,330.47,330.47,330.47,330.47,330.47,330.47,330.47,330.47,330.47,330.47,330.47,338.59,338.59,338.59,338.59,338.59,338.59,338.59,338.59,338.59,338.59,330.47,330.47,330.47,330.47,330.47,330.47,330.47,330.47,330.47,330.47,330.47,330.47,330.47,330.47,330.47,330.47,330.47,338.59,338.59,338.59,338.59,338.59,338.59,338.59,338.59,338.59,338.59,338.59,338.59,338.59,338.59,338.59,338.59,338.59,338.59,338.59,338.59,338.59,338.59,338.59,338.59,338.59,338.59,338.59,338.59,330.47,330.47,330.47,330.47,330.47,330.47,330.47,330.47,330.47,330.47,338.59,338.59,338.59,349.41,349.41,349.41,349.41,359.78,359.78,359.78,359.78,359.78,359.78,359.78,359.78,359.78,359.78,359.78,359.78,359.78,359.78,359.78,359.78,359.78,359.78,359.78,359.78,359.78,359.78,359.78,359.78,359.78,360.24,359.78,359.78,359.33,357.08,354.82,350.76,349.41,349.41,349.41,359.78,359.78,359.78,359.78,359.78,359.78,359.78,359.78,359.78,359.78,359.78,359.78,359.78,359.78,359.78,359.78,359.78,349.41,349.41,349.41,347.16,342.20,344.00,345.35,353.47,359.78,359.78,359.78,344.90,336.33,333.63,329.57,326.86,319.65,315.14,306.57,306.57,307.02,306.57,306.57,306.57,307.47,306.57,307.02,306.57,306.57,306.57,306.57,306.57,306.57,306.12,306.12,306.12,306.12,306.12,308.37,318.75,328.22,328.22,330.92,328.67,328.22,317.39,307.92,305.67,305.67,305.67,305.67,306.12,306.12,316.94,332.27,342.65,359.78,359.78,359.78,359.78,366.10,366.10,366.10,366.10,366.10,366.10,366.10,366.10,366.10,366.10,366.10,366.10,366.10,366.10,366.10,366.10,366.10,366.10,366.10,366.10,366.10,366.10,366.10,366.10,373.76,373.76,373.76,373.76,373.76,373.76,373.76,373.76,373.76,373.76,384.14,384.14,384.14,384.14,384.14,384.14,384.14,384.14,384.14,384.14,384.14,384.14,384.14,384.14,384.14,384.14,384.14,384.14,384.14,384.14,384.14,384.14,384.14,384.14,384.14,384.14,384.14,384.14,384.14,384.14,384.14,398.12,398.12,398.12,398.12,398.12,398.12,398.12,398.12,398.12,384.14,384.14,384.14,384.14,384.14,384.14,398.12,398.12,398.12,398.12,384.14,384.14,384.14,384.14,384.14,384.14,384.14,384.14,384.14,398.12,398.12,398.12,398.12,398.12,398.12,398.12,398.12,397.67,397.67,397.67,397.67,397.67,398.12,398.12,398.12,398.12,398.12,398.12,398.12,398.12,398.12,397.67,397.67,397.67,397.67,394.06,394.06,394.06,394.06,394.06,394.06,394.06,394.06,394.06,394.06,397.67,397.67,397.67,397.67,397.67,397.67,397.67,397.67,397.67,398.12,398.12,398.12,398.12,397.67,397.67,397.67,397.67,397.67,397.67,397.67,397.67,397.67,397.67,397.67,397.67,397.67,397.67,397.67,397.67,394.06,394.06,394.06,397.67,397.67,397.67,397.67,397.67,397.67,397.67,397.67,397.67,397.67,397.67,394.06,394.06,394.06,394.06,394.06,394.06,394.06,394.06,394.06,394.06,394.06,394.06,394.06,391.80,391.80,391.80,390.00,388.65,388.65,388.65,382.33,377.82,377.82,371.51,365.20,365.20,353.47,347.16,347.16,336.33,334.53,334.53,325.96,321.90,321.90,318.75,316.49,316.49
330.47,330.47,330.47,330.47,330.47,330.47,330.47,330.47,338.59,338.59,338.59,330.47,330.47,330.47,330.47,330.47,330.47,330.47,330.47,330.47,330.47,330.47,330.47,330.47,330.47,330.47,330.47,330.47,330.47,330.47,330.47,330.47,338.59,338.59,338.59,338.59,338.59,338.59,338.59,338.59,338.59,338.59,330.47,330.47,330.47,330.47,330.47,330.47,330.47,330.47,330.47,330.47,330.47,330.47,330.47,330.47,330.47,330.47,330.47,338.59,338.59,338.59,338.59,338.59,338.59,338.59,338.59,338.59,338.59,338.59,338.59,338.59,338.59,338.59,338.59,338.59,338.59,338.59,338.59,338.59,338.59,338.59,338.59,338.59,338.59,338.59,338.59,330.47,330.47,330.47,330.47,330.47,330.47,330.47,330.47,330.47,330.47,338.59,338.59,338.59,349.41,349.41,349.41,349.41,359.78,359.78,359.78,359.78,359.78,359.78,359.78,359.78,359.78,359.78,359.78,359.78,359.78,359.78,359.78,359.78,359.78,359.78,359.78,359.78,359.78,359.78,359.78,359.78,359.78,359.78,359.78,359.78,360.69,358.43,356.63,354.82,349.41,349.41,349.41,359.78,359.78,359.78,359.78,359.78,359.78,359.78,359.78,359.78,359.78,359.78,359.78,359.78,359.78,359.78,359.78,359.78,349.41,351.67,349.86,348.96,351.22,350.76,357.53,357.98,359.78,359.78,359.78,354.37,348.06,344.00,338.14,343.10,331.82,326.86,320.10,307.02,306.57,306.57,306.57,306.57,306.57,308.82,309.27,306.57,307.02,308.37,313.33,323.25,328.67,332.73,332.73,326.86,322.35,320.55,331.37,333.63,344.00,353.47,356.63,352.57,344.00,336.33,329.57,320.55,321.00,321.00,321.00,321.00,321.90,334.53,340.39,349.41,359.78,359.78,359.78,359.78,359.78,359.78,359.78,359.78,359.78,366.10,366.10,366.10,366.10,366.10,366.10,366.10,366.10,366.10,366.10,366.10,366.10,366.10,366.10,366.10,366.10,366.10,366.10,366.10,366.10,366.10,366.10,366.10,373.76,373.76,373.76,373.76,373.76,373.76,373.76,384.14,384.14,384.14,384.14,384.14,384.14,384.14,384.14,384.14,384.14,384.14,384.14,384.14,384.14,384.14,384.14,384.14,384.14,384.14,384.14,384.14,384.14,384.14,384.14,384.14,384.14,384.14,384.14,384.14,384.14,398.12,398.12,398.12,398.12,398.12,398.12,398.12,398.12,398.12,384.14,384.14,384.14,384.14,384.14,384.14,384.14,384.14,384.14,384.14,384.14,384.14,384.14,384.14,384.14,384.14,384.14,384.14,384.14,384.14,398.12,398.12,398.12,398.12,398.12,398.12,398.12,398.12,398.12,398.12,398.12,398.12,398.12,398.12,398.12,398.12,398.12,398.12,398.12,398.12,398.12,397.67,397.67,397.67,397.67,397.67,397.67,397.67,394.06,394.06,394.06,394.06,397.67,397.67,397.67,397.67,397.67,397.67,397.67,397.67,397.67,397.67,397.67,398.12,398.12,398.12,398.12,398.12,397.67,397.67,397.67,397.67,397.67,397.67,397.67,397.67,397.67,397.67,397.67,397.67,397.67,397.67,397.67,397.67,397.67,397.67,397.67,397.67,397.67,397.67,397.67,397.67,397.67,397.67,397.67,397.67,397.67,397.67,397.67,397.67,397.67,397.67,394.06,394.06,394.06,394.06,394.06,394.06,394.06,394.06,394.06,391.80,391.80,391.80,390.00,388.65,388.65,388.65,385.49,382.33,382.33,371.51,365.20,365.20,359.78,347.16,347.16,340.84,334.53,334.53,326.86,323.71,323.71,320.55,316.49,316.49
330.47,330.47,330.47,330.47,330.47,330.47,330.47,330.47,338.59,338.59,338.59,330.47,330.47,330.47,330.47,330.47,330.47,330.47,330.47,330.47,330.47,330.47,330.47,330.47,330.47,330.47,330.47,330.47,330.47,330.47,330.47,330.47,330.47,330.47,330.47,338.59,338.59,338.59,338.59,338.59,338.59,338.59,330.47,330.47,330.47,330.47,330.47,330.47,330.47,330.47,330.47,330.47,330.47,330.47,330.47,330.47,330.47,330.47,330.47,338.59,338.59,338.59,338.59,338.59,338.59,338.59,338.59,338.59,338.59,338.59,338.59,338.59,338.59,338.59,338.59,338.59,338.59,338.59,338.59,338.59,338.59,338.59,338.59,338.59,338.59,338.59,338.59,330.47,330.47,330.47,330.47,330.47,330.47,330.47,330.47,330.47,330.47,338.59,338.59,338.59,349.41,349.41,349.41,349.41,359.78,359.78,359.78,359.78,359.78,359.78,359.78,359.78,359.78,359.78,359.78,359.78,359.78,359.78,359.78,359.78,359.78,359.78,359.78,359.78,359.78,359.78,359.78,359.78,359.78,360.24,359.78,359.78,359.78,359.78,359.78,359.78,359.78,359.78,359.78,359.78,359.78,359.78,359.78,359.78,359.78,359.78,359.78,359.78,359.78,359.78,359.78,359.78,359.78,359.78,359.78,359.78,359.78,349.41,349.41,349.41,350.31,352.57,357.53,359.78,359.78,359.78,359.78,359.78,359.78,359.78,359.78,353.02,346.25,334.98,329.12,315.59,306.57,306.57,306.57,306.57,310.63,316.04,325.51,321.00,325.96,332.27,336.33,341.29,366.10,366.10,366.10,344.45,337.69,337.24,345.35,353.92,364.29,367.45,367.45,367.45,363.84,352.57,345.35,336.78,334.98,334.98,334.98,335.43,337.24,343.10,351.22,359.78,359.78,359.78,359.78,359.78,359.78,359.78,359.78,359.78,359.78,366.10,366.10,366.10,366.10,366.10,366.10,366.10,366.10,366.10,366.10,366.10,366.10,366.10,366.10,366.10,366.10,366.10,366.10,366.10,366.10,366.10,366.10,373.76,373.76,373.76,373.76,373.76,373.76,373.76,384.14,384.14,384.14,384.14,384.14,384.14,384.14,384.14,384.14,384.14,384.14,384.14,384.14,384.14,384.14,384.14,384.14,384.14,384.14,384.14,384.14,384.14,384.14,384.14,384.14,384.14,384.14,384.14,384.14,384.14,384.14,398.12,398.12,398.12,398.12,398.12,398.12,398.12,398.12,398.12,384.14,384.14,384.14,384.14,384.14,384.14,384.14,384.14,384.14,384.14,384.14,384.14,384.14,384.14,384.14,384.14,384.14,384.14,384.14,384.14,384.14,384.14,398.12,398.12,398.12,398.12,398.12,398.12,398.12,398.12,398.12,398.12,398.12,398.12,398.12,398.12,398.12,398.12,398.12,398.12,398.12,398.12,398.12,398.12,397.67,397.67,397.67,397.67,397.67,397.67,397.67,397.67,397.67,397.67,397.67,397.67,397.67,397.67,397.67,397.67,397.67,397.67,397.67,398.12,398.12,398.12,398.12,398.12,398.12,398.12,398.12,398.12,397.67,397.67,397.67,397.67,397.67,397.67,397.67,397.67,397.67,397.67,397.67,397.67,397.67,397.67,397.67,397.67,397.67,397.67,397.67,397.67,397.67,397.67,397.67,397.67,397.67,397.67,397.67,397.67,397.67,397.67,397.67,397.67,394.06,394.06,394.06,394.06,394.06,394.06,394.06,394.06,391.80,391.80,391.80,390.00,388.65,388.65,385.49,382.33,382.33,377.82,365.20,365.20,359.78,347.16,347.16,340.84,340.84,336.33,330.02,324.16,322.35,320.55,316.49,316.49
330.47,330.47,330.47,330.47,330.47,330.47,330.47,330.47,338.59,338.59,338.59,338.59,338.59,338.59,338.59,338.59,330.47,330.47,330.47,330.47,330.47,330.47,330.47,330.47,330.47,330.47,330.47,330.47,330.47,330.47,330.47,330.47,330.47,330.47,330.47,330.47,330.47,330.47,338.59,338.59,338.59,338.59,330.47,330.47,330.47,330.47,330.47,325.96,325.96,325.96,325.96,330.47,330.47,330.47,330.47,330.47,330.47,330.47,330.47,338.59,338.59,338.59,338.59,338.59,338.59,338.59,338.59,338.59,338.59,338.59,338.59,338.59,338.59,338.59,338.59,338.59,338.59,338.59,338.59,338.59,338.59,338.59,338.59,338.59,338.59,338.59,338.59,330.47,330.47,330.47,330.47,330.47,330.47,330.47,330.47,330.47,330.47,338.59,338.59,338.59,338.59,349.41,349.41,349.41,349.41,349.41,349.41,349.41,349.41,349.41,359.78,359.78,359.78,359.78,359.78,359.78,359.78,359.78,359.78,359.78,359.78,359.78,359.78,359.78,359.78,359.78,359.78,359.78,359.78,359.78,359.78,359.78,359.78,359.78,359.78,359.78,359.78,359.78,359.78,359.78,359.78,359.78,359.78,359.78,359.78,359.78,359.78,359.78,359.78,359.78,359.78,359.78,359.78,359.78,359.78,359.78,359.78,349.41,349.41,349.41,351.22,353.02,356.63,359.78,359.78,359.78,359.78,359.78,359.78,359.78,359.78,357.98,359.78,352.57,342.65,338.14,329.12,312.88,316.04,319.65,327.31,328.22,334.98,334.98,337.24,349.86,352.12,366.10,366.10,366.10,366.10,366.10,366.10,366.10,366.10,366.10,366.10,366.10,366.10,366.10,366.10,366.10,366.10,366.10,366.10,366.10,366.10,366.10,366.10,366.10,359.78,359.78,359.78,359.78,359.78,359.78,359.78,359.78,359.78,366.10,366.10,366.10,366.10,366.10,366.10,366.10,366.10,366.10,366.10,366.10,366.10,366.10,366.10,373.76,373.76,373.76,373.76,373.76,373.76,373.76,366.10,366.10,366.10,373.76,373.76,373.76,373.76,373.76,373.76,373.76,384.14,384.14,384.14,384.14,384.14,384.14,384.14,384.14,384.14,384.14,384.14,384.14,384.14,384.14,384.14,384.14,384.14,384.14,384.14,384.14,384.14,384.14,384.14,384.14,384.14,384.14,384.14,384.14,384.14,384.14,384.14,398.12,398.12,398.12,398.12,398.12,398.12,398.12,398.12,398.12,384.14,384.14,384.14,384.14,384.14,384.14,384.14,384.14,384.14,384.14,384.14,384.14,384.14,384.14,384.14,384.14,384.14,384.14,384.14,384.14,384.14,384.14,398.12,398.12,398.12,398.12,398.12,398.12,398.12,398.12,398.12,398.12,398.12,398.12,398.12,398.12,398.12,398.12,398.12,398.12,398.12,398.12,398.12,398.12,397.67,397.67,397.67,397.67,397.67,397.67,397.67,397.67,397.67,397.67,397.67,397.67,397.67,397.67,397.67,397.67,397.67,397.67,397.67,398.12,398.12,398.12,398.12,398.12,398.12,398.12,398.12,398.12,397.67,397.67,397.67,397.67,397.67,397.67,397.67,397.67,397.67,397.67,397.67,397.67,397.67,397.67,397.67,397.67,397.67,397.67,397.67,397.67,397.67,397.67,397.67,397.67,397.67,397.67,397.67,397.67,397.67,397.67,397.67,397.67,394.06,394.06,394.06,394.06,394.06,394.06,394.06,394.06,391.80,391.80,391.80,390.00,388.65,388.65,385.49,382.33,382.33,377.82,365.20,365.20,359.78,347.16,347.16,340.84,340.84,335.43,329.57,325.96,323.25,320.55,316.49,316.49
330.47,330.47,330.47,330.47,330.47,330.47,330.47,330.47,338.59,338.59,338.59,338.59,338.59,338.59,338.59,338.59,330.47,330.47,330.47,330.47,330.47,330.47,330.47,330.47,330.47,330.47,330.47,330.47,330.47,330.47,330.47,330.47,330.47,330.47,330.47,330.47,330.47,330.47,338.59,338.59,330.47,330.47,330.47,330.47,330.47,330.47,330.47,325.96,325.96,325.96,325.96,330.47,330.47,330.47,330.47,330.47,330.47,330.47,330.47,338.59,338.59,338.59,338.59,338.59,338.59,338.59,338.59,338.59,338.59,338.59,338.59,338.59,338.59,338.59,338.59,338.59,338.59,338.59,338.59,338.59,338.59,338.59,338.59,338.59,338.59,338.59,338.59,330.47,330.47,330.47,330.47,330.47,330.47,330.47,330.47,330.47,330.47,338.59,338.59,338.59,338.59,338.59,338.59,349.41,349.41,349.41,349.41,349.41,349.41,349.41,349.41,349.41,349.41,349.41,359.78,359.78,359.78,359.78,359.78,359.78,359.78,359.78,359.78,359.78,359.78,359.78,359.78,359.78,359.78,359.78,359.78,359.78,359.78,359.78,359.78,359.78,349.41,349.41,349.41,359.78,359.78,359.78,359.78,359.78,359.78,359.78,359.78,359.78,359.78,359.78,359.78,359.78,359.78,359.78,359.78,359.78,349.41,349.41,349.41,349.41,351.22,352.12,355.73,359.78,359.78,359.78,359.78,359.78,359.78,359.78,359.78,358.88,358.88,359.33,357.08,348.96,343.10,336.78,328.67,333.18,339.94,351.22,358.88,359.78,360.69,359.78,361.59,366.10,366.10,366.10,366.10,366.10,366.10,366.10,366.10,366.10,366.10,373.76,373.76,366.10,366.10,366.10,366.10,366.10,366.10,366.10,366.10,366.10,366.10,366.10,359.78,359.78,359.78,359.78,359.78,359.78,359.78,359.78,359.78,366.10,366.10,366.10,366.10,366.10,366.10,366.10,366.10,366.10,366.10,366.10,373.76,373.76,373.76,373.76,373.76,373.76,373.76,373.76,373.76,373.76,373.76,373.76,373.76,373.76,373.76,373.76,373.76,373.76,373.76,373.76,384.14,384.14,384.14,384.14,384.14,384.14,384.14,384.14,384.14,384.14,384.14,384.14,384.14,384.14,384.14,384.14,384.14,384.14,384.14,384.14,384.14,384.14,384.14,384.14,384.14,384.14,384.14,384.14,398.12,398.12,384.14,398.12,398.12,398.12,398.12,398.12,398.12,398.12,398.12,384.14,384.14,384.14,384.14,384.14,384.14,384.14,384.14,384.14,384.14,384.14,384.14,384.14,384.14,384.14,384.14,384.14,384.14,384.14,384.14,384.14,384.14,384.14,384.14,384.14,384.14,384.14,398.12,398.12,398.12,398.12,398.12,398.12,384.14,384.14,384.14,398.12,398.12,398.12,398.12,398.12,398.12,398.12,398.12,398.12,398.12,397.67,397.67,397.67,397.67,397.67,397.67,397.67,397.67,397.67,397.67,397.67,397.67,397.67,397.67,397.67,397.67,397.67,397.67,398.12,398.12,398.12,398.12,398.12,398.12,398.12,398.12,398.12,398.12,397.67,397.67,397.67,397.67,397.67,397.67,397.67,397.67,397.67,397.67,397.67,397.67,397.67,397.67,397.67,397.67,397.67,397.67,397.67,397.67,397.67,397.67,397.67,397.67,397.67,397.67,397.67,397.67,397.67,397.67,397.67,397.67,394.06,394.06,394.06,394.06,394.06,394.06,394.06,391.80,391.80,391.80,390.00,388.65,388.65,385.49,382.33,382.33,377.82,371.51,371.51,359.78,353.47,353.47,340.84,340.84,334.98,330.92,323.71,323.71,320.55,318.75,318.75
330.47,330.47,330.47,330.47,330.47,330.47,330.47,330.47,338.59,338.59,338.59,338.59,338.59,338.59,338.59,338.59,330.47,338.59,338.59,330.47,330.47,330.47,330.47,330.47,330.47,330.47,330.47,330.47,330.47,330.47,330.47,330.47,330.47,330.47,330.47,330.47,330.47,330.47,338.59,338.59,330.47,330.47,330.47,330.47,330.47,330.47,330.47,330.47,330.47,330.47,330.47,330.47,330.47,330.47,330.47,330.47,330.47,330.47,338.59,338.59,338.59,338.59,338.59,338.59,338.59,338.59,338.59,338.59,338.59,338.59,338.59,338.59,338.59,338.59,338.59,338.59,338.59,338.59,338.59,338.59,338.59,338.59,338.59,338.59,338.59,338.59,338.59,330.47,330.47,330.47,330.47,330.47,330.47,330.47,330.47,330.47,338.59,338.59,338.59,338.59,338.59,338.59,338.59,349.41,349.41,349.41,349.41,349.41,349.41,349.41,349.41,349.41,349.41,349.41,359.78,359.78,359.78,359.78,359.78,359.78,359.78,359.78,359.78,359.78,359.78,359.78,359.78,359.78,359.78,359.78,359.78,359.78,359.78,359.78,359.78,359.78,359.78,359.78,359.78,359.78,359.78,359.78,359.78,359.78,359.78,359.78,359.78,359.78,359.78,359.78,359.78,359.78,359.78,359.78,359.78,359.78,359.78,349.41,349.41,349.41,349.41,349.41,349.41,359.78,359.78,359.78,359.78,359.78,359.78,359.78,359.78,359.78,359.78,359.78,359.78,357.08,349.86,353.92,359.78,359.78,359.78,359.78,359.78,366.10,366.10,366.10,366.10,366.10,366.10,366.10,366.10,366.10,366.10,366.10,366.10,366.10,366.10,373.76,373.76,366.10,366.10,366.10,366.10,366.10,366.10,366.10,366.10,366.10,366.10,359.78,359.78,359.78,359.78,359.78,359.78,359.78,359.78,359.78,359.78,359.78,359.78,359.78,359.78,359.78,359.78,366.10,366.10,366.10,366.10,366.10,373.76,373.76,373.76,373.76,373.76,373.76,373.76,373.76,373.76,373.76,373.76,373.76,373.76,373.76,373.76,373.76,373.76,373.76,373.76,373.76,384.14,384.14,384.14,384.14,384.14,384.14,384.14,384.14,384.14,384.14,384.14,384.14,384.14,384.14,384.14,384.14,384.14,384.14,384.14,384.14,384.14,384.14,384.14,384.14,384.14,384.14,384.14,384.14,398.12,398.12,384.14,398.12,398.12,398.12,398.12,398.12,398.12,398.12,398.12,384.14,384.14,384.14,384.14,384.14,384.14,384.14,384.14,384.14,384.14,384.14,384.14,384.14,384.14,384.14,384.14,384.14,384.14,384.14,384.14,384.14,384.14,384.14,384.14,384.14,384.14,384.14,384.14,384.14,384.14,384.14,384.14,384.14,384.14,384.14,384.14,384.14,384.14,384.14,384.14,384.14,398.12,398.12,398.12,398.12,398.12,398.12,398.12,397.67,397.67,397.67,397.67,397.67,397.67,397.67,397.67,397.67,397.67,397.67,397.67,397.67,397.67,397.67,397.67,398.12,398.12,398.12,398.12,398.12,398.12,398.12,398.12,398.12,398.12,397.67,397.67,397.67,397.67,397.67,397.67,397.67,397.67,397.67,397.67,397.67,397.67,397.67,397.67,397.67,397.67,397.67,397.67,397.67,397.67,397.67,397.67,397.67,397.67,397.67,397.67,397.67,397.67,397.67,397.67,397.67,397.67,394.06,394.06,394.06,394.06,394.06,394.06,394.06,391.80,391.80,391.80,390.00,388.65,388.65,385.49,382.33,382.33,377.82,371.51,371.51,359.78,353.47,353.47,340.84,334.53,334.53,326.86,323.71,323.71,321.90,318.75,318.75
330.47,330.47,330.47,330.47,330.47,330.47,330.47,330.47,338.59,338.59,338.59,338.59,338.59,338.59,338.59,338.59,338.59,338.59,338.59,338.59,338.59,330.47,330.47,330.47,330.47,330.47,330.47,330.47,330.47,330.47,330.47,330.47,330.47,330.47,330.47,330.47,330.47,330.47,330.47,330.47,330.47,330.47,330.47,330.47,330.47,330.47,330.47,330.47,330.47,330.47,330.47,330.47,330.47,330.47,330.47,330.47,330.47,330.47,338.59,338.59,338.59,338.59,338.59,338.59,338.59,338.59,338.59,338.59,338.59,338.59,338.59,338.59,338.59,338.59,338.59,338.59,338.59,338.59,338.59,338.59,338.59,338.59,338.59,338.59,338.59,338.59,338.59,338.59,330.47,330.47,330.47,330.47,330.47,330.47,330.47,330.47,338.59,338.59,338.59,338.59,338.59,338.59,338.59,349.41,349.41,349.41,349.41,349.41,349.41,349.41,349.41,349.41,349.41,349.41,349.41,359.78,359.78,359.78,359.78,359.78,359.78,359.78,359.78,359.78,359.78,359.78,359.78,359.78,359.78,359.78,359.78,359.78,359.78,359.78,359.78,359.78,359.78,359.78,359.78,359.78,359.78,359.78,359.78,359.78,359.78,359.78,359.78,359.78,359.78,359.78,359.78,359.78,359.78,359.78,349.41,359.78,359.78,349.41,349.41,349.41,349.41,349.41,349.41,359.78,359.78,359.78,359.78,359.78,359.78,359.78,359.78,359.78,359.78,359.78,359.78,359.78,359.78,359.78,359.78,359.78,359.78,359.78,359.78,366.10,366.10,366.10,366.10,366.10,366.10,366.10,366.10,366.10,366.10,366.10,366.10,366.10,366.10,373.76,373.76,366.10,366.10,366.10,366.10,366.10,366.10,366.10,366.10,366.10,366.10,366.10,359.78,359.78,359.78,359.78,359.78,359.78,359.78,359.78,359.78,359.78,359.78,359.78,366.10,366.10,366.10,366.10,366.10,366.10,366.10,373.76,373.76,373.76,373.76,373.76,373.76,373.76,373.76,373.76,373.76,373.76,373.76,373.76,373.76,373.76,373.76,373.76,373.76,373.76,373.76,373.76,384.14,384.14,384.14,384.14,384.14,384.14,384.14,384.14,384.14,384.14,384.14,384.14,384.14,384.14,384.14,384.14,384.14,384.14,384.14,384.14,384.14,384.14,384.14,384.14,384.14,384.14,384.14,384.14,398.12,398.12,398.12,398.12,398.12,398.12,398.12,398.12,398.12,398.12,398.12,384.14,384.14,384.14,384.14,384.14,384.14,384.14,384.14,384.14,384.14,384.14,384.14,384.14,384.14,384.14,384.14,384.14,384.14,384.14,384.14,384.14,384.14,384.14,384.14,384.14,384.14,384.14,384.14,384.14,384.14,384.14,384.14,384.14,384.14,384.14,384.14,384.14,384.14,384.14,384.14,384.14,398.12,398.12,398.12,398.12,398.12,398.12,398.12,397.67,397.67,397.67,397.67,397.67,397.67,397.67,397.67,397.67,397.67,397.67,397.67,397.67,397.67,397.67,397.67,397.67,398.12,398.12,398.12,398.12,398.12,398.12,398.12,398.12,398.12,397.67,397.67,397.67,397.67,397.67,397.67,397.67,397.67,397.67,397.67,397.67,397.67,397.67,397.67,397.67,397.67,397.67,397.67,397.67,397.67,397.67,398.12,397.67,397.67,397.67,397.67,397.67,397.67,397.67,397.67,397.67,397.67,394.06,394.06,394.06,394.06,394.06,394.06,394.06,394.06,394.06,391.80,390.00,388.65,388.65,385.49,382.33,382.33,377.82,371.51,371.51,359.78,353.47,353.47,340.84,334.53,334.53,326.86,323.71,323.71,321.90,318.75,318.75
330.47,330.47,330.47,330.47,330.47,330.47,330.47,330.47,338.59,338.59,338.59,338.59,338.59,338.59,338.59,338.59,338.59,338.59,338.59,338.59,338.59,330.47,330.47,330.47,330.47,330.47,330.47,330.47,330.47,330.47,330.47,330.47,330.47,330.47,330.47,330.47,330.47,330.47,330.47,330.47,330.47,330.47,330.47,330.47,330.47,330.47,330.47,330.47,330.47,330.47,330.47,330.47,330.47,330.47,330.47,330.47,330.47,330.47,338.59,338.59,338.59,338.59,338.59,338.59,338.59,338.59,338.59,338.59,338.59,338.59,338.59,338.59,338.59,338.59,338.59,338.59,338.59,338.59,338.59,338.59,338.59,338.59,338.59,338.59,338.59,338.59,338.59,338.59,330.47,330.47,330.47,330.47,330.47,330.47,330.47,330.47,338.59,338.59,338.59,338.59,338.59,338.59,338.59,349.41,349.41,349.41,349.41,349.41,349.41,349.41,349.41,349.41,349.41,349.41,349.41,349.41,349.41,359.78,359.78,359.78,359.78,359.78,359.78,359.78,359.78,359.78,359.78,359.78,359.78,359.78,359.78,359.78,359.78,359.78,359.78,359.78,359.78,359.78,359.78,359.78,359.78,359.78,359.78,359.78,359.78,359.78,359.78,359.78,359.78,359.78,359.78,359.78,359.78,359.78,359.78,359.78,349.41,349.41,349.41,349.41,349.41,349.41,349.41,349.41,359.78,359.78,359.78,359.78,359.78,359.78,359.78,359.78,359.78,359.78,359.78,359.78,359.78,359.78,359.78,359.78,359.78,359.78,359.78,366.10,366.10,366.10,366.10,366.10,366.10,366.10,366.10,366.10,366.10,366.10,366.10,366.10,366.10,373.76,373.76,366.10,366.10,366.10,366.10,366.10,366.10,366.10,366.10,366.10,366.10,366.10,359.78,359.78,359.78,359.78,359.78,359.78,359.78,359.78,359.78,359.78,359.78,359.78,366.10,366.10,366.10,366.10,366.10,366.10,366.10,373.76,373.76,373.76,373.76,373.76,373.76,384.14,384.14,384.14,373.76,373.76,373.76,373.76,373.76,373.76,373.76,373.76,373.76,373.76,373.76,373.76,384.14,384.14,384.14,384.14,384.14,384.14,384.14,384.14,384.14,384.14,384.14,384.14,384.14,384.14,384.14,384.14,384.14,384.14,384.14,384.14,384.14,384.14,384.14,384.14,384.14,384.14,384.14,384.14,398.12,398.12,398.12,398.12,398.12,398.12,398.12,398.12,398.12,384.14,384.14,384.14,384.14,384.14,384.14,384.14,384.14,384.14,384.14,384.14,384.14,384.14,384.14,384.14,384.14,384.14,384.14,384.14,384.14,384.14,384.14,384.14,384.14,384.14,384.14,384.14,384.14,384.14,384.14,384.14,384.14,384.14,384.14,384.14,384.14,384.14,384.14,384.14,384.14,384.14,384.14,384.14,384.14,398.12,398.12,398.12,398.12,398.12,398.12,398.12,398.12,397.67,397.67,397.67,397.67,397.67,397.67,397.67,397.67,397.67,397.67,397.67,397.67,397.67,397.67,397.67,398.12,398.12,398.12,398.12,398.12,398.12,398.12,398.12,398.12,397.67,397.67,397.67,397.67,397.67,397.67,397.67,397.67,397.67,397.67,397.67,397.67,397.67,397.67,397.67,397.67,397.67,397.67,397.67,397.67,397.67,398.12,397.67,397.67,397.67,397.67,397.67,397.67,397.67,397.67,397.67,397.67,394.06,394.06,394.06,394.06,394.06,394.06,394.06,394.06,394.06,391.80,390.00,388.65,388.65,385.49,382.33,382.33,377.82,371.51,371.51,359.78,353.47,353.47,340.84,334.53,334.53,326.86,323.71,323.71,320.55,318.75,318.75
330.47,330.47,330.47,330.47,330.47,330.47,330.47,338.59,338.59,338.59,338.59,338.59,338.59,338.59,338.59,338.59,338.59,338.59,338.59,338.59,338.59,330.47,330.47,330.47,330.47,330.47,330.47,330.47,330.47,330.47,330.47,330.47,330.47,330.47,330.47,330.47,330.47,330.47,330.47,330.47,330.47,330.47,330.47,330.47,330.47,330.47,330.47,330.47,330.47,330.47,330.47,330.47,330.47,330.47,330.47,330.47,338.59,338.59,338.59,338.59,338.59,338.59,338.59,338.59,338.59,338.59,338.59,338.59,338.59,338.59,338.59,338.59,338.59,338.59,338.59,338.59,338.59,338.59,338.59,338.59,338.59,338.59,338.59,338.59,338.59,338.59,338.59,338.59,338.59,338.59,338.59,338.59,338.59,338.59,338.59,338.59,338.59,338.59,338.59,338.59,338.59,338.59,338.59,349.41,349.41,349.41,349.41,349.41,349.41,349.41,349.41,349.41,349.41,349.41,349.41,349.41,349.41,349.41,359.78,359.78,359.78,359.78,359.78,359.78,359.78,359.78,359.78,359.78,359.78,359.78,359.78,359.78,359.78,359.78,359.78,359.78,359.78,359.78,359.78,359.78,359.78,359.78,359.78,359.78,359.78,359.78,359.78,359.78,359.78,359.78,359.78,359.78,359.78,359.78,359.78,359.78,349.41,349.41,349.41,349.41,349.41,349.41,349.41,349.41,349.41,349.41,349.41,359.78,359.78,359.78,359.78,359.78,359.78,359.78,359.78,359.78,359.78,359.78,359.78,359.78,359.78,359.78,359.78,366.10,366.10,366.10,366.10,366.10,366.10,366.10,366.10,366.10,366.10,366.10,366.10,366.10,366.10,366.10,366.10,366.10,366.10,366.10,366.10,366.10,366.10,366.10,366.10,366.10,366.10,366.10,359.78,359.78,359.78,359.78,359.78,359.78,359.78,359.78,359.78,359.78,359.78,359.78,366.10,366.10,366.10,366.10,366.10,366.10,366.10,373.76,373.76,373.76,373.76,373.76,373.76,384.14,384.14,384.14,373.76,373.76,373.76,373.76,373.76,373.76,373.76,373.76,373.76,373.76,373.76,373.76,384.14,384.14,384.14,384.14,384.14,384.14,384.14,384.14,384.14,384.14,384.14,384.14,384.14,384.14,384.14,384.14,384.14,384.14,384.14,384.14,384.14,384.14,384.14,384.14,384.14,384.14,384.14,398.12,398.12,398.12,398.12,398.12,398.12,398.12,398.12,398.12,398.12,384.14,384.14,384.14,384.14,384.14,384.14,384.14,384.14,384.14,384.14,384.14,384.14,384.14,384.14,384.14,384.14,384.14,384.14,384.14,384.14,384.14,384.14,384.14,384.14,384.14,384.14,384.14,384.14,384.14,384.14,384.14,384.14,384.14,384.14,384.14,384.14,384.14,384.14,384.14,384.14,384.14,384.14,384.14,384.14,384.14,398.12,398.12,398.12,398.12,398.12,398.12,398.12,398.12,398.12,397.67,397.67,397.67,397.67,397.67,397.67,397.67,397.67,397.67,397.67,397.67,397.67,398.12,398.12,398.12,398.12,398.12,398.12,398.12,398.12,398.12,398.12,397.67,397.67,397.67,397.67,397.67,397.67,397.67,397.67,397.67,397.67,397.67,397.67,397.67,397.67,397.67,397.67,397.67,397.67,397.67,397.67,397.67,397.67,397.67,397.67,397.67,397.67,397.67,397.67,397.67,397.67,397.67,397.67,394.06,394.06,394.06,394.06,394.06,394.06,394.06,394.06,394.06,391.80,390.00,388.65,388.65,388.65,382.33,382.33,377.82,371.51,371.51,359.78,347.16,347.16,340.84,334.53,334.53,326.86,323.71,323.71,320.55,318.75,318.75
330.47,330.47,330.47,330.47,330.47,330.47,330.47,338.59,338.59,338.59,338.59,338.59,338.59,338.59,338.59,338.59,338.59,338.59,338.59,338.59,338.59,338.59,330.47,330.47,330.47,330.47,330.47,330.47,330.47,330.47,330.47,330.47,330.47,330.47,330.47,330.47,330.47,330.47,330.47,330.47,330.47,330.47,330.47,330.47,330.47,330.47,330.47,330.47,330.47,330.47,330.47,330.47,330.47,338.59,338.59,338.59,338.59,338.59,338.59,338.59,338.59,338.59,338.59,338.59,338.59,338.59,338.59,338.59,338.59,338.59,338.59,338.59,338.59,338.59,338.59,338.59,338.59,338.59,338.59,338.59,338.59,338.59,338.59,338.59,338.59,338.59,338.59,338.59,338.59,338.59,338.59,338.59,338.59,338.59,338.59,338.59,338.59,338.59,338.59,338.59,338.59,349.41,349.41,349.41,349.41,349.41,349.41,349.41,349.41,349.41,349.41,349.41,349.41,349.41,349.41,349.41,349.41,349.41,359.78,359.78,359.78,359.78,359.78,359.78,359.78,359.78,359.78,359.78,359.78,359.78,359.78,359.78,359.78,359.78,359.78,359.78,359.78,359.78,359.78,359.78,359.78,359.78,359.78,359.78,359.78,359.78,359.78,359.78,359.78,359.78,359.78,359.78,359.78,359.78,359.78,359.78,349.41,349.41,349.41,349.41,349.41,349.41,349.41,349.41,349.41,349.41,349.41,359.78,359.78,359.78,359.78,359.78,359.78,359.78,359.78,359.78,359.78,359.78,359.78,359.78,359.78,359.78,359.78,366.10,366.10,366.10,366.10,366.10,366.10,366.10,366.10,366.10,366.10,366.10,366.10,366.10,366.10,373.76,373.76,373.76,373.76,366.10,366.10,366.10,366.10,366.10,366.10,366.10,366.10,366.10,359.78,359.78,359.78,359.78,359.78,366.10,366.10,359.78,359.78,366.10,366.10,366.10,366.10,366.10,366.10,366.10,366.10,366.10,373.76,373.76,373.76,373.76,373.76,384.14,384.14,384.14,384.14,384.14,384.14,384.14,384.14,373.76,373.76,373.76,373.76,373.76,373.76,373.76,373.76,384.14,384.14,384.14,384.14,384.14,384.14,384.14,384.14,384.14,384.14,384.14,384.14,384.14,384.14,384.14,384.14,384.14,384.14,384.14,384.14,384.14,384.14,384.14,384.14,384.14,384.14,384.14,384.14,398.12,398.12,398.12,398.12,398.12,398.12,398.12,398.12,398.12,398.12,384.14,384.14,384.14,384.14,384.14,384.14,384.14,384.14,384.14,384.14,384.14,384.14,384.14,384.14,384.14,384.14,384.14,384.14,384.14,384.14,384.14,384.14,384.14,384.14,384.14,384.14,384.14,384.14,384.14,384.14,384.14,384.14,384.14,384.14,384.14,384.14,384.14,384.14,384.14,384.14,384.14,384.14,384.14,384.14,384.14,384.14,384.14,398.12,398.12,398.12,398.12,398.12,398.12,398.12,398.12,397.67,397.67,397.67,397.67,397.67,397.67,397.67,397.67,397.67,397.67,398.12,398.12,398.12,398.12,398.12,398.12,398.12,398.12,398.12,398.12,398.12,397.67,397.67,397.67,397.67,397.67,397.67,397.67,397.67,397.67,397.67,397.67,397.67,397.67,397.67,397.67,397.67,397.67,397.67,397.67,397.67,397.67,397.67,398.12,398.12,397.67,397.67,397.67,397.67,397.67,397.67,397.67,397.67,397.67,397.67,397.67,394.06,394.06,394.06,394.06,394.06,394.06,391.80,391.80,390.00,390.00,388.65,382.33,382.33,377.82,371.51,371.51,359.78,347.16,347.16,340.84,334.53,334.53,326.86,323.71,323.71,321.90,318.75,318.75
330.47,330.47,330.47,330.47,330.47,330.47,330.47,338.59,338.59,338.59,338.59,338.59,338.59,338.59,338.59,338.59,338.59,338.59,338.59,338.59,338.59,338.59,338.59,330.47,330.47,330.47,330.47,330.47,330.47,330.47,330.47,330.47,330.47,330.47,330.47,330.47,330.47,330.47,330.47,338.59,338.59,338.59,338.59,330.47,330.47,330.47,338.59,338.59,338.59,338.59,338.59,338.59,338.59,338.59,338.59,338.59,338.59,338.59,338.59,338.59,338.59,338.59,338.59,338.59,338.59,338.59,338.59,338.59,338.59,338.59,338.59,338.59,338.59,338.59,338.59,338.59,338.59,338.59,338.59,338.59,338.59,338.59,338.59,338.59,338.59,338.59,338.59,338.59,338.59,338.59,338.59,338.59,338.59,338.59,338.59,338.59,338.59,338.59,349.41,349.41,349.41,349.41,349.41,349.41,349.41,349.41,349.41,349.41,349.41,349.41,349.41,349.41,349.41,349.41,349.41,349.41,349.41,349.41,349.41,349.41,359.78,359.78,359.78,359.78,359.78,359.78,359.78,359.78,359.78,359.78,359.78,359.78,359.78,359.33,359.78,359.78,359.78,359.78,359.78,359.78,359.78,359.78,359.78,359.78,359.78,359.78,359.78,359.78,359.78,359.78,359.78,359.78,359.78,359.78,359.78,359.78,349.41,349.41,349.41,349.41,349.41,349.41,349.41,349.41,349.41,349.41,349.41,359.78,359.78,359.78,359.78,359.78,359.78,359.78,359.78,359.78,359.78,359.78,359.78,359.78,359.78,359.78,359.78,359.78,366.10,366.10,366.10,366.10,366.10,366.10,366.10,366.10,366.10,366.10,366.10,373.76,373.76,373.76,373.76,373.76,373.76,373.76,366.10,366.10,366.10,366.10,366.10,366.10,366.10,366.10,366.10,366.10,359.78,359.78,359.78,366.10,366.10,366.10,366.10,366.10,366.10,366.10,366.10,366.10,366.10,366.10,373.76,373.76,373.76,373.76,373.76,373.76,373.76,384.14,384.14,384.14,384.14,384.14,384.14,384.14,384.14,384.14,384.14,384.14,384.14,384.14,384.14,384.14,384.14,384.14,384.14,384.14,384.14,384.14,384.14,384.14,384.14,384.14,384.14,384.14,384.14,384.14,384.14,384.14,384.14,384.14,384.14,384.14,384.14,384.14,384.14,384.14,384.14,384.14,384.14,398.12,398.12,398.12,398.12,398.12,398.12,398.12,398.12,398.12,398.12,398.12,398.12,384.14,384.14,384.14,384.14,384.14,384.14,384.14,384.14,384.14,384.14,384.14,384.14,384.14,384.14,384.14,384.14,384.14,384.14,384.14,384.14,384.14,384.14,384.14,384.14,384.14,384.14,384.14,384.14,384.14,384.14,384.14,384.14,384.14,384.14,384.14,384.14,384.14,384.14,384.14,384.14,384.14,384.14,384.14,384.14,384.14,384.14,384.14,398.12,398.12,398.12,398.12,398.12,398.12,398.12,398.12,397.67,397.67,397.67,397.67,397.67,397.67,397.67,397.67,397.67,397.67,398.12,398.12,398.12,398.12,398.12,398.12,398.12,398.12,398.12,398.12,398.12,397.67,397.67,397.67,397.67,397.67,397.67,397.67,397.67,397.67,397.67,397.67,397.67,397.67,397.67,397.67,397.67,397.67,397.67,397.67,397.67,397.67,397.67,398.12,398.12,397.67,397.67,397.67,397.67,397.67,397.67,397.67,397.67,397.67,397.67,397.67,394.06,394.06,394.06,394.06,394.06,394.06,391.80,391.80,390.00,390.00,388.65,382.33,382.33,377.82,371.51,371.51,359.78,347.16,347.16,340.84,334.53,334.53,326.86,323.71,323.71,321.90,318.75,318.75
330.47,330.47,330.47,338.59,338.59,338.59,338.59,338.59,338.59,338.59,338.59,338.59,338.59,338.59,338.59,338.59,338.59,338.59,338.59,338.59,338.59,338.59,338.59,330.47,330.47,330.47,330.47,330.47,330.47,330.47,330.47,330.47,330.47,330.47,330.47,330.47,330.47,330.47,330.47,338.59,338.59,338.59,338.59,330.47,330.47,330.47,338.59,338.59,338.59,338.59,338.59,338.59,338.59,338.59,338.59,338.59,338.59,338.59,338.59,338.59,338.59,338.59,338.59,338.59,338.59,338.59,338.59,338.59,338.59,338.59,338.59,338.59,338.59,338.59,338.59,338.59,338.59,338.59,338.59,338.59,338.59,338.59,338.59,338.59,338.59,338.59,338.59,338.59,338.59,338.59,338.59,338.59,338.59,338.59,338.59,338.59,338.59,338.59,349.41,349.41,349.41,349.41,349.41,349.41,349.41,349.41,349.41,349.41,349.41,349.41,349.41,349.41,349.41,349.41,349.41,349.41,349.41,349.41,349.41,349.41,349.41,349.41,359.78,359.78,359.78,359.78,359.78,359.78,349.41,359.78,359.78,359.78,359.78,358.43,358.43,359.78,359.78,359.78,359.78,349.41,349.41,359.78,359.78,359.78,359.78,359.78,359.78,359.78,359.78,359.78,359.78,359.78,359.78,349.41,349.41,349.41,349.41,349.41,349.41,349.41,349.41,349.41,349.41,349.41,349.41,349.41,349.41,359.78,359.78,359.78,359.78,359.78,359.78,359.78,359.78,359.78,359.78,359.78,359.78,359.78,359.78,359.78,359.78,359.78,362.49,364.75,364.75,365.65,366.10,366.10,366.10,366.10,366.10,366.10,373.76,373.76,373.76,373.76,373.76,373.76,373.76,373.76,366.10,366.10,366.10,366.10,366.10,366.10,366.10,366.10,366.10,366.10,366.10,366.10,366.10,366.10,366.10,366.10,366.10,366.10,366.10,366.10,366.10,366.10,366.10,366.10,373.76,373.76,373.76,373.76,373.76,373.76,373.76,384.14,384.14,384.14,384.14,384.14,384.14,384.14,384.14,384.14,384.14,384.14,384.14,384.14,384.14,384.14,384.14,384.14,384.14,384.14,384.14,384.14,384.14,384.14,384.14,384.14,384.14,384.14,384.14,384.14,384.14,384.14,384.14,384.14,384.14,384.14,384.14,384.14,384.14,384.14,384.14,384.14,384.14,398.12,398.12,398.12,398.12,398.12,398.12,398.12,398.12,398.12,398.12,398.12,398.12,384.14,384.14,384.14,384.14,384.14,384.14,384.14,384.14,384.14,384.14,384.14,384.14,384.14,384.14,384.14,384.14,384.14,384.14,384.14,384.14,384.14,384.14,384.14,384.14,384.14,384.14,384.14,384.14,384.14,384.14,384.14,384.14,384.14,384.14,384.14,384.14,384.14,384.14,384.14,384.14,384.14,384.14,384.14,384.14,384.14,384.14,384.14,398.12,398.12,398.12,398.12,398.12,398.12,398.12,398.12,398.12,398.12,397.67,397.67,397.67,398.12,398.12,398.12,398.12,398.12,398.12,398.12,398.12,398.12,398.12,398.12,398.12,398.12,398.12,398.12,398.12,398.12,398.12,397.67,397.67,397.67,397.67,397.67,397.67,397.67,397.67,397.67,397.67,397.67,397.67,397.67,397.67,397.67,397.67,397.67,397.67,397.67,397.67,397.67,397.67,397.67,397.67,397.67,397.67,397.67,397.67,397.67,397.67,397.67,397.67,397.67,394.06,394.06,394.06,394.06,394.06,394.06,391.80,391.80,390.00,390.00,388.65,385.49,385.49,382.33,371.51,371.51,359.78,347.16,347.16,340.84,334.53,334.53,326.86,323.71,323.71,321.90,318.75,318.75
